3.371666336059570312e+01 -4.548579025268554688e+01 -3.288505554199218750e+01
-2.992812097072601318e-01 -4.868294525146484375e+01 -9.381357574462890625e+01
-1.026994228363037109e+01 -4.624816131591796875e+01 -9.890822601318359375e+01
2.089426994323730469e+01 -5.112653350830078125e+01 -2.302484703063964844e+01
3.139639282226562500e+01 -4.375762939453125000e+01 1.020831489562988281e+01
3.373677062988281250e+01 -4.770157241821289062e+01 8.623426437377929688e+00
3.350497055053710938e+01 -4.219897460937500000e+01 -7.475709438323974609e+00
3.062136840820312500e+01 -3.734233474731445312e+01 -4.784835338592529297e+00
1.716600227355957031e+01 -4.921487426757812500e+01 -1.229585647583007812e+01
2.059583091735839844e+01 -5.096797561645507812e+01 -1.624865722656250000e+01
2.049139213562011719e+01 -5.096751785278320312e+01 -1.158859729766845703e+01
1.734989547729492188e+01 -4.944313430786132812e+01 -7.103713035583496094e+00
-1.642274093627929688e+01 -5.668864822387695312e+01 -3.447119903564453125e+01
-1.523274230957031250e+01 -5.521625900268554688e+01 -4.066799926757812500e+01
1.097687149047851562e+01 -2.924913597106933594e+01 -2.042913436889648438e+01
2.356238937377929688e+01 -2.684976196289062500e+01 -2.202180099487304688e+01
2.440096855163574219e+01 -2.371607398986816406e+01 -3.174868202209472656e+01
-2.724488258361816406e+00 -4.883833312988281250e+01 -4.848955535888671875e+01
-4.861180305480957031e+00 -5.106764602661132812e+01 -3.964842605590820312e+01
-8.641520500183105469e+00 -5.197318267822265625e+01 -4.216234970092773438e+01
1.540542888641357422e+01 -5.043863677978515625e+01 -2.904657936096191406e+01
1.611958312988281250e+01 -5.135330963134765625e+01 -2.198781204223632812e+01
1.186112308502197266e+01 -5.078417205810546875e+01 -2.528903961181640625e+01
1.072744560241699219e+01 -4.983934783935546875e+01 -3.179136085510253906e+01
-2.778861999511718750e+01 -3.417371749877929688e+01 -7.829324340820312500e+01
-2.813319778442382812e+01 -4.389563751220703125e+01 -8.195008087158203125e+01
3.316801071166992188e+01 -5.639185714721679688e+01 1.420791435241699219e+01
3.335629272460937500e+01 -5.409352874755859375e+01 1.052570056915283203e+01
-6.724775433540344238e-01 -4.760184478759765625e+01 -5.912513351440429688e+01
2.599246597290039062e+01 -2.094523429870605469e+01 -4.413191604614257812e+01
1.134852647781372070e+00 -4.800228118896484375e+01 -6.992219543457031250e+01
-2.590482139587402344e+01 -4.238443756103515625e+01 -3.884852981567382812e+01
-2.690632057189941406e+01 -4.969448089599609375e+01 -4.019537734985351562e+01
-2.630964660644531250e+01 -5.192231369018554688e+01 -3.720008468627929688e+01
-2.718492507934570312e+01 -4.698438262939453125e+01 -3.352000045776367188e+01
1.731686973571777344e+01 -5.231728363037109375e+01 7.116907596588134766e+00
2.017026901245117188e+01 -5.595014572143554688e+01 5.757970809936523438e+00
2.062058639526367188e+01 -5.750738525390625000e+01 9.787721633911132812e+00
1.759726142883300781e+01 -5.381641387939453125e+01 1.162167167663574219e+01
2.484778976440429688e+01 -5.064777755737304688e+01 -1.786404609680175781e+01
2.968419456481933594e+01 -4.863659667968750000e+01 -1.914783668518066406e+01
2.878906631469726562e+01 -5.020082473754882812e+01 -1.178473854064941406e+01
2.433203315734863281e+01 -5.142794036865234375e+01 -1.149740219116210938e+01
3.323190689086914062e+01 -4.526335525512695312e+01 -1.623219108581542969e+01
3.262366104125976562e+01 -4.702319335937500000e+01 -1.040766620635986328e+01
1.719123458862304688e+01 -4.723276138305664062e+01 9.176547050476074219e+00
2.128340148925781250e+01 -4.236216354370117188e+01 1.069096565246582031e+01
1.875597000122070312e+01 -3.835225677490234375e+01 -3.327622175216674805e+00
1.623691749572753906e+01 -4.494928359985351562e+01 -3.076961517333984375e+00
-8.007452011108398438e+00 -1.588418388366699219e+01 -7.362730407714843750e+01
-1.587285327911376953e+01 -1.952672958374023438e+01 -7.828953552246093750e+01
-1.977303504943847656e+01 -2.538642501831054688e+01 -6.661894989013671875e+01
-2.384490966796875000e+01 -3.131883239746093750e+01 -5.553997802734375000e+01
-2.651486778259277344e+01 -3.851165008544921875e+01 -4.534398269653320312e+01
-1.917506027221679688e+01 -3.212305450439453125e+01 -3.954691696166992188e+01
-2.417216300964355469e+01 -2.843099021911621094e+01 -7.139430236816406250e+01
1.133267402648925781e+01 -4.167100143432617188e+01 -1.268446922302246094e+01
1.638789176940917969e+01 -3.475341033935546875e+01 -1.326534080505371094e+01
9.932701110839843750e+00 -3.426303863525390625e+01 -1.532060527801513672e+01
-4.285312652587890625e+00 -4.984680175781250000e+01 -7.282961273193359375e+01
3.348976898193359375e+01 -5.185703277587890625e+01 6.409463405609130859e+00
2.787664222717285156e+01 -8.885567665100097656e+00 -8.985689544677734375e+01
1.603705787658691406e+01 -5.205474376678466797e+00 -9.036539459228515625e+01
1.721805953979492188e+01 -7.731411933898925781e+00 -8.439994812011718750e+01
3.042990684509277344e+01 -1.212859916687011719e+01 -8.359362792968750000e+01
2.548041725158691406e+01 -5.739357376098632812e+01 4.405101776123046875e+00
3.048783874511718750e+01 -5.595286178588867188e+01 4.683020114898681641e+00
-1.905164909362792969e+01 -5.745377349853515625e+01 -4.354569244384765625e+01
-2.022805595397949219e+01 -5.699498367309570312e+01 -3.757185745239257812e+01
-2.277128982543945312e+01 -5.684390258789062500e+01 -3.766915130615234375e+01
-2.126117324829101562e+01 -6.103927612304687500e+01 -4.394324493408203125e+01
-1.909014701843261719e+01 -2.177744102478027344e+01 -8.205772399902343750e+01
-3.630966949462890625e+01 -5.355023956298828125e+01 -5.635670852661132812e+01
-3.355171585083007812e+01 -4.631679534912109375e+01 -5.053993988037109375e+01
-1.206689453125000000e+01 -1.466078758239746094e+01 -8.822356414794921875e+01
-5.079946994781494141e+00 -1.160513305664062500e+01 -8.402462768554687500e+01
-3.427293300628662109e+00 -8.170621871948242188e+00 -9.096807861328125000e+01
-9.747395515441894531e+00 -3.271883392333984375e+01 -2.722857093811035156e+01
-1.679442644119262695e+00 -1.477742958068847656e+01 -6.859926605224609375e+01
1.011992573738098145e+00 -1.059382820129394531e+01 -8.026618957519531250e+01
3.232204914093017578e+00 -6.936985015869140625e+00 -8.848911285400390625e+01
3.919025421142578125e+00 -3.544450759887695312e+00 -9.382850646972656250e+01
-3.458359241485595703e+00 -5.062024593353271484e+00 -9.619972991943359375e+01
2.640081787109375000e+01 -4.201965332031250000e+01 1.121864318847656250e+01
2.165344619750976562e+01 -4.500588226318359375e+01 1.545163917541503906e+01
-3.338255405426025391e+00 -2.131753921508789062e+00 -1.025006561279296875e+02
4.407862186431884766e+00 -3.579599261283874512e-01 -9.931483459472656250e+01
9.137549400329589844e+00 -1.020607948303222656e+01 -7.650358581542968750e+01
1.909279060363769531e+01 -1.137352657318115234e+01 -7.272421264648437500e+01
6.185682773590087891e+00 -1.371808338165283203e+01 -6.533898162841796875e+01
1.582114982604980469e+01 -1.440746021270751953e+01 -6.045375823974609375e+01
-7.198556065559387207e-01 -2.628851318359375000e+01 -2.689372253417968750e+01
1.936926651000976562e+01 -5.604926681518554688e+01 2.750324630737304688e+01
1.832528114318847656e+01 -5.166134643554687500e+01 1.833082962036132812e+01
1.791305160522460938e+01 -5.603530883789062500e+01 1.626554870605468750e+01
1.845066452026367188e+01 -5.946352386474609375e+01 2.638415908813476562e+01
1.774867248535156250e+01 -4.918141937255859375e+01 1.378658771514892578e+01
2.193664169311523438e+01 -4.779390716552734375e+01 1.930443763732910156e+01
2.875964736938476562e+01 -1.865570449829101562e+01 -5.713764572143554688e+01
1.168280696868896484e+01 -5.037897491455078125e+01 -1.835464286804199219e+01
3.355239868164062500e+01 -1.791985511779785156e+01 -7.076295471191406250e+01
3.794480133056640625e+01 -2.894597434997558594e+01 -5.145451736450195312e+01
4.060335540771484375e+01 -3.110202407836914062e+01 -6.212935638427734375e+01
3.894084930419921875e+01 -2.026959037780761719e+01 -8.551016998291015625e+01
4.227133941650390625e+01 -3.093483352661132812e+01 -7.574874114990234375e+01
3.523022460937500000e+01 -1.278257179260253906e+01 -9.740805816650390625e+01
3.647620391845703125e+01 -1.600878906250000000e+01 -9.114646148681640625e+01
4.223191070556640625e+01 -4.372776031494140625e+01 -6.742268371582031250e+01
2.867289352416992188e+01 -6.360158538818359375e+01 2.264878463745117188e+01
2.398866462707519531e+01 -6.414808654785156250e+01 2.248724365234375000e+01
2.722730636596679688e+01 -5.945293903350830078e+00 -9.573945617675781250e+01
1.432654380798339844e+01 -6.530519104003906250e+01 -6.829978179931640625e+01
1.677138954401016235e-01 -4.908663177490234375e+01 -8.209608459472656250e+01
3.732987165451049805e+00 -4.781571960449218750e+01 -7.963096618652343750e+01
-1.434905815124511719e+01 -4.963823699951171875e+01 -9.173265075683593750e+01
-4.844536304473876953e+00 -5.104492950439453125e+01 -8.634869384765625000e+01
3.197032546997070312e+01 -6.122251129150390625e+01 2.361102676391601562e+01
-7.690927028656005859e+00 -5.207027435302734375e+01 -1.890826988220214844e+01
-1.064268493652343750e+01 -5.334897613525390625e+01 -2.199362564086914062e+01
2.683588600158691406e+01 -7.111257171630859375e+01 -6.813642883300781250e+01
2.389531898498535156e+01 -7.335908508300781250e+01 -6.147187423706054688e+01
3.322901153564453125e+01 -6.925225067138671875e+01 -5.603421783447265625e+01
2.928370666503906250e+01 -7.257814788818359375e+01 -5.924085235595703125e+01
3.365747070312500000e+01 -6.842655944824218750e+01 -6.653330993652343750e+01
3.769710540771484375e+01 -6.370257568359375000e+01 -6.354425048828125000e+01
7.003430366516113281e+00 -4.724758911132812500e+01 -8.974580383300781250e+01
4.241622924804687500e+00 -4.790470886230468750e+01 -9.050038146972656250e+01
-2.414274978637695312e+01 -3.077187728881835938e+01 -8.843437194824218750e+01
-2.359036827087402344e+01 -4.133845901489257812e+01 -9.146394348144531250e+01
3.382376480102539062e+01 -3.972324371337890625e+01 -1.384219169616699219e+01
3.092766952514648438e+01 -3.155170822143554688e+01 -1.953800773620605469e+01
3.022585487365722656e+01 -3.423876953125000000e+01 -1.194726943969726562e+01
2.458917427062988281e+01 -3.499485015869140625e+01 -4.781213760375976562e+00
1.122209358215332031e+01 -4.724128341674804688e+01 -1.338130664825439453e+01
1.492437458038330078e+01 -4.453239822387695312e+01 -1.051154422760009766e+01
1.891435623168945312e+01 -5.090196990966796875e+01 -9.734989166259765625e+01
1.224692249298095703e+01 -5.052674484252929688e+01 -8.634249114990234375e+01
1.535859203338623047e+01 -6.292314910888671875e+01 -5.545731735229492188e+01
1.673108100891113281e+01 -6.048746490478515625e+01 -4.977283859252929688e+01
4.169872760772705078e+00 -4.947100830078125000e+01 -3.597356796264648438e+01
-7.994452476501464844e+00 -3.795986938476562500e+01 -1.772054672241210938e+01
-1.191734552383422852e+00 -3.183510208129882812e+01 -1.667860603332519531e+01
3.941989421844482422e+00 -5.086488723754882812e+01 -2.803269004821777344e+01
3.160140419006347656e+01 -5.523406219482421875e+01 2.697075843811035156e+01
3.283764648437500000e+01 -5.873022460937500000e+01 2.521455001831054688e+01
2.393612861633300781e+01 -3.173903274536132812e+01 -1.231508731842041016e+01
-1.403319740295410156e+01 -5.478732299804687500e+01 -4.785043716430664062e+01
-1.338902091979980469e+01 -3.814794158935546875e+01 -2.468994903564453125e+01
-7.776054382324218750e+00 -4.455147552490234375e+01 -1.642183113098144531e+01
-3.298533630371093750e+01 -5.762689208984375000e+01 -6.092668914794921875e+01
1.626952171325683594e+01 -1.939340591430664062e+00 -9.643888854980468750e+01
2.054424476623535156e+01 -5.961428070068359375e+01 1.480019569396972656e+01
2.018741989135742188e+01 -6.284924316406250000e+01 2.336144256591796875e+01
2.208539390563964844e+01 -5.310481643676757812e+01 2.783090782165527344e+01
2.730846786499023438e+01 -5.205410766601562500e+01 2.739136886596679688e+01
-1.812108039855957031e+01 -3.904556274414062500e+01 -9.980055236816406250e+01
5.670105457305908203e+00 -4.750658416748046875e+01 -7.770062255859375000e+01
4.018772506713867188e+01 -5.405534744262695312e+01 -6.142551422119140625e+01
3.538009643554687500e+01 -6.377316284179687500e+01 -5.333455657958984375e+01
3.238833665847778320e+00 -5.151794433593750000e+01 -2.205751037597656250e+01
-2.885933303833007812e+01 -4.587429046630859375e+01 -4.453588867187500000e+01
-2.168759918212890625e+01 -3.753132247924804688e+01 -3.258524322509765625e+01
-2.409390068054199219e+01 -4.246488571166992188e+01 -2.710844993591308594e+01
-1.898370361328125000e+01 -4.376287078857421875e+01 -2.200984954833984375e+01
-1.489170837402343750e+01 -4.988469696044921875e+01 -1.962279701232910156e+01
2.187968826293945312e+01 -5.572241210937500000e+01 3.187270164489746094e+01
2.681027221679687500e+01 -5.437299728393554688e+01 3.175274276733398438e+01
3.109077835083007812e+01 -5.723396682739257812e+01 3.186235427856445312e+01
3.249099731445312500e+01 -6.026959228515625000e+01 3.027137374877929688e+01
3.159169006347656250e+01 -6.277890777587890625e+01 2.749728012084960938e+01
1.945013427734375000e+01 -5.882181930541992188e+01 3.164462661743164062e+01
1.878836441040039062e+01 -6.189921951293945312e+01 3.081094932556152344e+01
2.024104118347167969e+01 -6.429907989501953125e+01 2.717142868041992188e+01
1.925119781494140625e+01 -6.157857131958007812e+01 3.546390533447265625e+01
2.179019737243652344e+01 -5.996384811401367188e+01 3.874681854248046875e+01
2.987196922302246094e+01 -6.503108215332031250e+01 4.375832748413085938e+01
2.990253639221191406e+01 -6.097388458251953125e+01 3.998174285888671875e+01
2.857073402404785156e+01 -6.150568389892578125e+01 4.218420410156250000e+01
2.818870544433593750e+01 -6.447844696044921875e+01 4.612672805786132812e+01
2.680457687377929688e+01 -6.718922424316406250e+01 4.988706207275390625e+01
2.838313674926757812e+01 -6.801188659667968750e+01 4.781018829345703125e+01
2.606427955627441406e+01 -5.948143386840820312e+01 4.042863082885742188e+01
2.507412147521972656e+01 -6.314614105224609375e+01 4.564601135253906250e+01
2.165469169616699219e+01 -6.377409744262695312e+01 4.465272140502929688e+01
2.130036354064941406e+01 -6.654713439941406250e+01 4.863727951049804688e+01
2.394708251953125000e+01 -6.605042266845703125e+01 4.974661254882812500e+01
2.270938682556152344e+01 -6.100537109375000000e+01 4.128653717041015625e+01
2.622583007812500000e+01 -5.826313018798828125e+01 3.853108978271484375e+01
2.617845726013183594e+01 -6.997355651855468750e+01 5.068413543701171875e+01
2.552667808532714844e+01 -6.848854064941406250e+01 5.144763946533203125e+01
2.318075942993164062e+01 -6.790221405029296875e+01 5.128934478759765625e+01
2.255503463745117188e+01 -7.055143737792968750e+01 5.088886642456054688e+01
3.205018997192382812e+01 -6.236058425903320312e+01 3.504567718505859375e+01
3.021056747436523438e+01 -6.650889587402343750e+01 4.227819824218750000e+01
2.819878578186035156e+01 -6.977470397949218750e+01 4.625362777709960938e+01
2.583819580078125000e+01 -7.126747894287109375e+01 4.908124160766601562e+01
2.881347656250000000e+01 -6.913642883300781250e+01 4.115005493164062500e+01
2.699855041503906250e+01 -7.111162567138671875e+01 4.470552825927734375e+01
2.480964279174804688e+01 -7.202003479003906250e+01 4.684711456298828125e+01
2.613211631774902344e+01 -7.090373229980468750e+01 4.016543960571289062e+01
2.487281417846679688e+01 -7.208493041992187500e+01 4.354580688476562500e+01
2.876372337341308594e+01 -6.558360290527343750e+01 2.946224021911621094e+01
3.139653968811035156e+01 -6.387677001953125000e+01 3.072402000427246094e+01
2.404800033569335938e+01 -7.235324859619140625e+01 4.545322799682617188e+01
2.170956802368164062e+01 -7.127017211914062500e+01 4.961201477050781250e+01
1.957813453674316406e+01 -6.426540374755859375e+01 4.199139785766601562e+01
1.951586532592773438e+01 -6.789024353027343750e+01 4.714828109741210938e+01
1.863802528381347656e+01 -6.557154846191406250e+01 4.065172576904296875e+01
1.887383460998535156e+01 -6.902825164794921875e+01 4.570534515380859375e+01
2.004509925842285156e+01 -6.958341979980468750e+01 4.947873687744140625e+01
2.118907737731933594e+01 -6.810231018066406250e+01 5.021077346801757812e+01
2.838516235351562500e+01 -6.448852539062500000e+01 2.533958435058593750e+01
2.345743942260742188e+01 -6.510727691650390625e+01 2.538508033752441406e+01
2.391118621826171875e+01 -6.640173339843750000e+01 2.888731002807617188e+01
2.271260452270507812e+01 -7.118931579589843750e+01 3.931140899658203125e+01
2.052700996398925781e+01 -6.587403869628906250e+01 3.048637771606445312e+01
1.874511718750000000e+01 -6.443741607666015625e+01 3.446955871582031250e+01
1.844510650634765625e+01 -6.775540161132812500e+01 4.003921508789062500e+01
1.957123947143554688e+01 -6.966770935058593750e+01 3.923850631713867188e+01
1.892478942871093750e+01 -7.017630004882812500e+01 4.401432037353515625e+01
1.995663833618164062e+01 -7.123941802978515625e+01 4.296021270751953125e+01
2.228054809570312500e+01 -7.220585632324218750e+01 4.295449066162109375e+01
1.991318130493164062e+01 -7.143988037109375000e+01 4.663731002807617188e+01
1.958111381530761719e+01 -7.051196289062500000e+01 4.845895004272460938e+01
2.205492019653320312e+01 -7.203086090087890625e+01 4.771452713012695312e+01
2.044463157653808594e+01 -7.183970642089843750e+01 4.529515838623046875e+01
2.228400802612304688e+01 -7.239393615722656250e+01 4.579773712158203125e+01
1.513432383537292480e+00 -6.619667053222656250e+01 1.144490432739257812e+01
-4.073215961456298828e+00 -6.835409545898437500e+01 9.714382171630859375e+00
-2.445059061050415039e+00 -6.505305480957031250e+01 6.093025207519531250e+00
2.243019342422485352e+00 -6.301724243164062500e+01 8.282103538513183594e+00
6.330929696559906006e-02 -5.771052169799804688e+01 1.850452423095703125e+01
2.935938596725463867e+00 -6.071199417114257812e+01 1.625585746765136719e+01
3.276999711990356445e+00 -5.700238037109375000e+01 1.398720359802246094e+01
-3.547106683254241943e-01 -5.340256881713867188e+01 1.591404247283935547e+01
-4.858902931213378906e+00 -5.646153640747070312e+01 1.886787796020507812e+01
-5.577105522155761719e+00 -5.213077545166015625e+01 1.531147480010986328e+01
1.642466485500335693e-01 -4.966886138916015625e+01 1.259815406799316406e+01
4.037551879882812500e+00 -5.344663238525390625e+01 1.054238796234130859e+01
7.927313327789306641e+00 -4.412149429321289062e+01 -7.504139900207519531e+00
4.226277351379394531e+00 -3.868756866455078125e+01 -5.752360343933105469e+00
-3.243489742279052734e+00 -5.317261505126953125e+01 -1.510750102996826172e+01
-5.919924259185791016e+00 -5.261807250976562500e+01 -1.339046001434326172e+01
3.149365186691284180e+00 -6.377398681640625000e+01 1.372154808044433594e+01
3.847743272781372070e+00 -6.021000289916992188e+01 1.139527320861816406e+01
-9.414167404174804688e+00 -6.101509857177734375e+01 3.264313459396362305e+00
-5.385651111602783203e+00 -6.276639556884765625e+01 2.217538833618164062e+00
-7.183477878570556641e+00 -6.505736541748046875e+01 6.059840679168701172e+00
-1.113576602935791016e+01 -6.265360641479492188e+01 7.773790836334228516e+00
6.726801872253417969e+00 -5.041902542114257812e+01 -1.310698699951171875e+01
2.024393558502197266e+00 -5.235613250732421875e+01 -1.497777271270751953e+01
7.986844062805175781e+00 -4.819830322265625000e+01 -9.992401123046875000e+00
-1.178611183166503906e+01 -5.696013641357421875e+01 5.958059787750244141e+00
-1.121061229705810547e+01 -5.195826339721679688e+01 9.196307182312011719e+00
-8.577764511108398438e+00 -4.218922805786132812e+01 -7.821650505065917969e+00
-9.580215454101562500e+00 -4.844340515136718750e+01 -1.037282276153564453e+01
4.649067401885986328e+00 -5.720617675781250000e+01 7.992688179016113281e+00
-3.284323811531066895e-01 -6.255752563476562500e+01 2.864127397537231445e+00
3.293602705001831055e+00 -6.057652664184570312e+01 4.870554447174072266e+00
-6.006505966186523438e+00 -4.866133880615234375e+01 1.174394702911376953e+01
-1.088964748382568359e+01 -5.512129592895507812e+01 1.355024719238281250e+01
-1.229569435119628906e+01 -7.002674102783203125e+01 2.261199569702148438e+01
-1.248333549499511719e+01 -6.210564041137695312e+01 1.442957878112792969e+01
-1.184253215789794922e+01 -6.555133056640625000e+01 1.184195137023925781e+01
-1.244826507568359375e+01 -7.358323669433593750e+01 2.056073951721191406e+01
-1.235813999176025391e+01 -5.902374267578125000e+01 1.072055053710937500e+01
-1.028230571746826172e+01 -5.840189361572265625e+01 1.711918067932128906e+01
-1.728542685508728027e+00 -7.678488922119140625e+01 2.024698257446289062e+01
-7.291481018066406250e+00 -7.775862121582031250e+01 1.889699935913085938e+01
9.864012002944946289e-01 -7.485842132568359375e+01 2.226272392272949219e+01
-3.100126743316650391e+00 -3.766881561279296875e+01 -5.925673961639404297e+00
-2.041152715682983398e-01 -6.760206604003906250e+01 2.551500701904296875e+01
1.754277586936950684e+00 -7.200464630126953125e+01 2.362438774108886719e+01
-8.783772468566894531e+00 -6.789288330078125000e+01 9.843718528747558594e+00
-1.092162609100341797e+01 -7.659612274169921875e+01 1.950093460083007812e+01
-1.026994609832763672e+01 -6.723445129394531250e+01 2.461618041992187500e+01
-5.020733356475830078e+00 -6.480909729003906250e+01 2.576088333129882812e+01
-1.012992191314697266e+01 -7.127060699462890625e+01 2.788443565368652344e+01
-5.336265087127685547e+00 -6.950433349609375000e+01 2.916770362854003906e+01
-2.894012033939361572e-01 -7.216098785400390625e+01 2.849529647827148438e+01
1.358739495277404785e+00 -7.549658203125000000e+01 2.634727478027343750e+01
5.694132447242736816e-01 -7.755635833740234375e+01 2.433983039855957031e+01
-1.219695758819580078e+01 -7.402006530761718750e+01 2.625195693969726562e+01
-1.265241432189941406e+01 -7.717527008056640625e+01 2.430701065063476562e+01
-1.083080959320068359e+01 -7.888530731201171875e+01 2.151114273071289062e+01
-1.217760944366455078e+01 -7.963989257812500000e+01 3.001761436462402344e+01
-1.006704139709472656e+01 -7.819389343261718750e+01 3.252420043945312500e+01
5.348784327507019043e-01 -8.822031402587890625e+01 3.739654159545898438e+01
7.301732897758483887e-01 -8.371171569824218750e+01 3.491771697998046875e+01
-8.366111516952514648e-01 -8.336873626708984375e+01 3.637906646728515625e+01
-6.112300157546997070e-01 -8.751037597656250000e+01 3.896783447265625000e+01
-5.317157506942749023e-01 -7.877561187744140625e+01 3.326514816284179688e+01
-1.864442110061645508e+00 -7.988750457763671875e+01 3.475926971435546875e+01
-5.447868347167968750e+00 -7.852396392822265625e+01 3.468990325927734375e+01
-4.907606601715087891e+00 -8.304134368896484375e+01 3.742359161376953125e+01
-9.230355262756347656e+00 -8.333468627929687500e+01 3.611254119873046875e+01
-8.658961296081542969e+00 -8.741622924804687500e+01 3.919311523437500000e+01
-4.716460704803466797e+00 -8.725224304199218750e+01 4.070899963378906250e+01
-8.449013710021972656e+00 -7.986336517333984375e+01 3.464602279663085938e+01
-1.345591783523559570e+00 -8.992230224609375000e+01 4.054458999633789062e+01
-1.141985177993774414e+00 -9.164638519287109375e+01 3.998589324951171875e+01
-5.346941947937011719e+00 -7.612760925292968750e+01 3.332526016235351562e+01
1.278468966484069824e+00 -7.824863433837890625e+01 2.912323570251464844e+01
1.343055009841918945e+00 -8.494956970214843750e+01 3.311690139770507812e+01
3.291911780834197998e-01 -8.976875305175781250e+01 3.590952682495117188e+01
-2.108415603637695312e+00 -9.333387756347656250e+01 3.867229461669921875e+01
1.899616718292236328e-01 -8.708271789550781250e+01 3.126166343688964844e+01
-8.006558418273925781e-01 -9.109030151367187500e+01 3.453259658813476562e+01
-3.102760791778564453e+00 -9.360061645507812500e+01 3.692491912841796875e+01
-2.811639547348022461e+00 -8.877341461181640625e+01 2.959555625915527344e+01
-3.489680051803588867e+00 -9.231602478027343750e+01 3.318843460083007812e+01
-2.668449401855468750e+00 -8.079660797119140625e+01 2.347521209716796875e+01
4.544900059700012207e-01 -7.976175689697265625e+01 2.596841430664062500e+01
-4.024986267089843750e+00 -9.343280029296875000e+01 3.533760070800781250e+01
-4.258121490478515625e+00 -9.336991882324218750e+01 4.132695770263671875e+01
-4.726496696472167969e+00 -9.505478668212890625e+01 3.897311019897460938e+01
-4.228083133697509766e+00 -9.076638031005859375e+01 4.202913284301757812e+01
-1.071836853027343750e+01 -8.397889709472656250e+01 3.499945831298828125e+01
-9.906537055969238281e+00 -8.875811767578125000e+01 3.806490325927734375e+01
-1.177839660644531250e+01 -8.520048522949218750e+01 3.341155242919921875e+01
-1.043614387512207031e+01 -9.045262908935546875e+01 3.688319015502929688e+01
-8.416663169860839844e+00 -9.225321960449218750e+01 3.956634521484375000e+01
-7.855944633483886719e+00 -9.137891387939453125e+01 4.078808593750000000e+01
-2.363513469696044922e+00 -7.878416442871093750e+01 2.189752197265625000e+01
-7.464144706726074219e+00 -7.945719909667968750e+01 2.064517593383789062e+01
-7.474726676940917969e+00 -8.119676208496093750e+01 2.225937271118164062e+01
-7.287641048431396484e+00 -8.901992797851562500e+01 2.872998619079589844e+01
-1.097005844116210938e+01 -8.077600097656250000e+01 2.339037132263183594e+01
-1.258626079559326172e+01 -8.092268371582031250e+01 2.735016441345214844e+01
-1.198126792907714844e+01 -8.622428894042968750e+01 3.143416786193847656e+01
-1.060654258728027344e+01 -8.809570312500000000e+01 2.972454833984375000e+01
-1.061485290527343750e+01 -9.111991119384765625e+01 3.544744110107421875e+01
-1.011070060729980469e+01 -9.139547729492187500e+01 3.308108139038085938e+01
-6.930590629577636719e+00 -9.228923797607421875e+01 3.234581756591796875e+01
-8.577213287353515625e+00 -9.277037048339843750e+01 3.686952590942382812e+01
-8.418462753295898438e+00 -9.245671081542968750e+01 3.816035842895507812e+01
-5.421630859375000000e+00 -9.441578674316406250e+01 3.692845916748046875e+01
-8.764805793762207031e+00 -9.317324066162109375e+01 3.544165802001953125e+01
-6.104105949401855469e+00 -9.388578033447265625e+01 3.558109664916992188e+01
-2.465886306762695312e+01 -7.532603454589843750e+01 -1.111971092224121094e+01
-2.689643478393554688e+01 -7.616523742675781250e+01 -1.620299339294433594e+01
-2.489960098266601562e+01 -7.294805908203125000e+01 -1.844366836547851562e+01
-2.245807838439941406e+01 -7.145362854003906250e+01 -1.297042369842529297e+01
-3.086441421508789062e+01 -6.976527404785156250e+01 -5.602957725524902344e+00
-2.766766929626464844e+01 -7.186931610107421875e+01 -5.317317008972167969e+00
-2.575976562500000000e+01 -6.819022369384765625e+01 -6.874115943908691406e+00
-2.863067245483398438e+01 -6.467430114746093750e+01 -7.403574943542480469e+00
-3.499368286132812500e+01 -7.058394622802734375e+01 -7.595963954925537109e+00
-3.266403961181640625e+01 -6.352272415161132812e+01 -1.002119636535644531e+01
-2.659378433227539062e+01 -6.003588867187500000e+01 -9.908355712890625000e+00
-2.385600662231445312e+01 -6.436152648925781250e+01 -8.801347732543945312e+00
-1.653237342834472656e+01 -5.330046844482421875e+01 -1.777995681762695312e+01
-2.139930915832519531e+01 -4.913437271118164062e+01 -1.775292587280273438e+01
-2.531018638610839844e+01 -7.371839904785156250e+01 -7.457867622375488281e+00
-2.356364822387695312e+01 -7.050457763671875000e+01 -8.896409034729003906e+00
-3.056021690368652344e+01 -6.904658508300781250e+01 -2.300357246398925781e+01
-2.713066673278808594e+01 -6.983422088623046875e+01 -2.299364280700683594e+01
-2.893448448181152344e+01 -7.260108947753906250e+01 -2.083860397338867188e+01
-3.231888580322265625e+01 -7.160985565185546875e+01 -2.052533340454101562e+01
-1.409252452850341797e+01 -5.783748245239257812e+01 -2.571422195434570312e+01
-1.803038024902343750e+01 -5.844329071044921875e+01 -3.074710655212402344e+01
-1.474246025085449219e+01 -5.677993011474609375e+01 -2.109682655334472656e+01
-3.403108978271484375e+01 -6.641985321044921875e+01 -2.067033004760742188e+01
-3.441881561279296875e+01 -6.124709320068359375e+01 -1.732518196105957031e+01
-2.964343833923339844e+01 -5.217665863037109375e+01 -2.689591026306152344e+01
-2.802287864685058594e+01 -5.573495483398437500e+01 -3.037244796752929688e+01
-2.198237419128417969e+01 -6.751668548583984375e+01 -1.062603187561035156e+01
-2.336977767944335938e+01 -7.000077819824218750e+01 -2.053719902038574219e+01
-2.119886779785156250e+01 -6.929320526123046875e+01 -1.499061584472656250e+01
-3.086934471130371094e+01 -5.875119781494140625e+01 -1.260755348205566406e+01
-3.603141403198242188e+01 -6.559642028808593750e+01 -1.426207160949707031e+01
-4.045838546752929688e+01 -8.659204101562500000e+01 -1.015734481811523438e+01
-3.665048217773437500e+01 -7.239099884033203125e+01 -1.633021736145019531e+01
-3.336280441284179688e+01 -7.482953643798828125e+01 -1.865321731567382812e+01
-3.871661376953125000e+01 -8.818253326416015625e+01 -1.210487842559814453e+01
-3.581603240966796875e+01 -6.960355377197265625e+01 -1.794817352294921875e+01
-3.721558761596679688e+01 -7.048439025878906250e+01 -1.225238323211669922e+01
-3.047484397888183594e+01 -8.854521179199218750e+01 -6.032941341400146484e+00
-3.265800857543945312e+01 -8.879540252685546875e+01 -1.021195411682128906e+01
-3.020603561401367188e+01 -8.664329528808593750e+01 -3.617123842239379883e+00
-2.680380821228027344e+01 -4.811495208740234375e+01 -2.136476898193359375e+01
-2.377635383605957031e+01 -5.803965377807617188e+01 -3.275355911254882812e+01
-3.433756256103515625e+01 -8.461869049072265625e+01 -1.055019140243530273e+00
-3.145438194274902344e+01 -8.562755584716796875e+01 -1.978470087051391602e+00
-3.035992431640625000e+01 -7.569775390625000000e+01 -1.867871856689453125e+01
-3.606877899169921875e+01 -8.882795715332031250e+01 -1.241701316833496094e+01
-4.076301956176757812e+01 -8.428076171875000000e+01 -7.102522373199462891e+00
-3.831819152832031250e+01 -8.298518371582031250e+01 -3.036565780639648438e+00
-4.164934539794921875e+01 -8.923819732666015625e+01 -6.152018547058105469e+00
-3.940622711181640625e+01 -8.802339172363281250e+01 -2.053097486495971680e+00
-3.547608947753906250e+01 -8.965072631835937500e+01 1.530041079968214035e-02
-3.251821136474609375e+01 -9.047299957275390625e+01 -7.864139080047607422e-01
-3.110106468200683594e+01 -9.113524627685546875e+01 -2.488418579101562500e+00
-4.121702957153320312e+01 -9.136365509033203125e+01 -9.018263816833496094e+00
-3.940446472167968750e+01 -9.257147979736328125e+01 -1.076041030883789062e+01
-3.632596588134765625e+01 -9.101984405517578125e+01 -1.154791450500488281e+01
-4.118399047851562500e+01 -9.561782073974609375e+01 -8.727495193481445312e+00
-4.214189910888671875e+01 -9.627343750000000000e+01 -5.058089256286621094e+00
-3.645182037353515625e+01 -1.085308380126953125e+02 9.771125912666320801e-01
-3.597583770751953125e+01 -1.034274291992187500e+02 9.202221035957336426e-01
-3.695246124267578125e+01 -1.034350585937500000e+02 8.539348840713500977e-01
-3.775370407104492188e+01 -1.085543823242187500e+02 9.451006650924682617e-01
-3.682209014892578125e+01 -9.705793762207031250e+01 7.196434140205383301e-01
-3.770792007446289062e+01 -9.887194824218750000e+01 5.667501688003540039e-01
-4.013727951049804688e+01 -9.770996856689453125e+01 -1.132463693618774414e+00
-4.057033920288085938e+01 -1.036719970703125000e+02 -9.312941431999206543e-01
-4.243146514892578125e+01 -1.027324218750000000e+02 -5.343034267425537109e+00
-4.234076690673828125e+01 -1.074021453857421875e+02 -4.663226127624511719e+00
-4.091837692260742188e+01 -1.087734146118164062e+02 -5.356696248054504395e-01
-4.197555541992187500e+01 -9.814206695556640625e+01 -4.121826171875000000e+00
-3.853464126586914062e+01 -1.108456802368164062e+02 5.617206692695617676e-01
-3.757759475708007812e+01 -1.111191024780273438e+02 4.455766081809997559e-01
-4.010494613647460938e+01 -9.516133880615234375e+01 -1.298644185066223145e+00
-3.350847625732421875e+01 -9.584272003173828125e+01 3.340891301631927490e-01
-3.384312438964843750e+01 -1.035035858154296875e+02 5.146803855895996094e-01
-3.451045608520507812e+01 -1.085205688476562500e+02 3.804748654365539551e-01
-3.559351730346679688e+01 -1.110775604248046875e+02 -4.157337248325347900e-01
-3.241085433959960938e+01 -1.034754791259765625e+02 -1.209414243698120117e+00
-3.339526367187500000e+01 -1.081420135498046875e+02 -1.084133148193359375e+00
-3.466371536254882812e+01 -1.105206756591796875e+02 -1.785124182701110840e+00
-3.236449813842773438e+01 -1.032363281250000000e+02 -3.504435300827026367e+00
-3.331400680541992188e+01 -1.074639434814453125e+02 -3.243092298507690430e+00
-3.141811561584472656e+01 -9.336250305175781250e+01 -4.724777221679687500e+00
-3.154149818420410156e+01 -9.474096679687500000e+01 -1.632465720176696777e+00
-3.442610549926757812e+01 -1.097046661376953125e+02 -3.177491664886474609e+00
-3.975601196289062500e+01 -1.124819793701171875e+02 -9.090708494186401367e-01
-3.639595413208007812e+01 -1.121978759765625000e+02 -3.185053586959838867e+00
-4.040744781494140625e+01 -1.115149536132812500e+02 -5.712033510208129883e-01
-4.225153732299804688e+01 -1.020254974365234375e+02 -6.871471405029296875e+00
-4.190144348144531250e+01 -1.081630477905273438e+02 -6.416957855224609375e+00
-4.088759231567382812e+01 -1.017206268310546875e+02 -8.652287483215332031e+00
-4.065351486206054688e+01 -1.079040679931640625e+02 -7.931722164154052734e+00
-4.143984985351562500e+01 -1.117875518798828125e+02 -4.556060314178466797e+00
-4.179587554931640625e+01 -1.112635040283203125e+02 -3.945325374603271484e+00
-3.103087997436523438e+01 -9.076424407958984375e+01 -5.612809181213378906e+00
-3.342115020751953125e+01 -9.110330963134765625e+01 -9.566424369812011719e+00
-3.354050445556640625e+01 -9.362748718261718750e+01 -8.563532829284667969e+00
-3.384246826171875000e+01 -1.032834854125976562e+02 -6.819714546203613281e+00
-3.626917648315429688e+01 -9.354939270019531250e+01 -1.068025779724121094e+01
-3.914616775512695312e+01 -9.642949676513671875e+01 -1.024127388000488281e+01
-3.876099395751953125e+01 -1.020383682250976562e+02 -9.621136665344238281e+00
-3.632740402221679688e+01 -1.029446563720703125e+02 -9.073354721069335938e+00
-3.886652755737304688e+01 -1.074843902587890625e+02 -8.387109756469726562e+00
-3.695109939575195312e+01 -1.068005218505859375e+02 -8.318186759948730469e+00
-3.436742782592773438e+01 -1.072825164794921875e+02 -6.015478610992431641e+00
-3.822324371337890625e+01 -1.104442977905273438e+02 -6.763434410095214844e+00
-3.987731170654296875e+01 -1.113598480224609375e+02 -5.861735343933105469e+00
-3.595067596435546875e+01 -1.112537078857421875e+02 -4.249700069427490234e+00
-3.684743499755859375e+01 -1.092557830810546875e+02 -6.816735267639160156e+00
-3.537749481201171875e+01 -1.099711761474609375e+02 -5.011530399322509766e+00
-2.097437095642089844e+01 -5.813673782348632812e+01 -3.280050659179687500e+01
-2.540440750122070312e+01 -8.620375061035156250e+01 -4.024722290039062500e+01
-2.601699829101562500e+01 -8.654532623291015625e+01 -4.353862762451171875e+01
-2.620405960083007812e+01 -8.279134368896484375e+01 -4.469919967651367188e+01
-2.481982994079589844e+01 -8.170789337158203125e+01 -4.150222778320312500e+01
-3.284909820556640625e+01 -8.195701599121093750e+01 -3.552672576904296875e+01
-2.939989662170410156e+01 -8.399119567871093750e+01 -3.551215362548828125e+01
-2.853612709045410156e+01 -7.886071014404296875e+01 -3.581813430786132812e+01
-3.196504783630371094e+01 -7.698551177978515625e+01 -3.587050247192382812e+01
-3.621612167358398438e+01 -8.192094421386718750e+01 -3.823363876342773438e+01
-3.587106323242187500e+01 -7.747645568847656250e+01 -3.862097167968750000e+01
-3.172100448608398438e+01 -7.354195404052734375e+01 -3.653702545166015625e+01
-2.778862953186035156e+01 -7.482144165039062500e+01 -3.653635025024414062e+01
-2.719812583923339844e+01 -5.713378906250000000e+01 -4.041691207885742188e+01
-3.051961326599121094e+01 -5.533040237426757812e+01 -4.259644317626953125e+01
-3.192736434936523438e+01 -6.148496246337890625e+01 -5.789818191528320312e+01
-2.696936988830566406e+01 -6.300996017456054688e+01 -5.694407272338867188e+01
-2.728458595275878906e+01 -6.793544006347656250e+01 -5.343253326416015625e+01
-3.102235794067382812e+01 -6.702232360839843750e+01 -5.474144744873046875e+01
-2.680147743225097656e+01 -8.545127868652343750e+01 -3.733406066894531250e+01
-2.561152267456054688e+01 -8.090536499023437500e+01 -3.817094802856445312e+01
-3.302319335937500000e+01 -7.925184631347656250e+01 -4.900988006591796875e+01
-2.937008094787597656e+01 -7.969856262207031250e+01 -4.817790603637695312e+01
-2.882776451110839844e+01 -8.301676940917968750e+01 -4.701070022583007812e+01
-3.252626800537109375e+01 -8.311820220947265625e+01 -4.805826950073242188e+01
-2.312383651733398438e+01 -6.375050735473632812e+01 -5.298018646240234375e+01
-2.107851219177246094e+01 -6.286655426025390625e+01 -4.900711822509765625e+01
-2.236452102661132812e+01 -6.471929931640625000e+01 -4.685531616210937500e+01
-2.433092880249023438e+01 -6.775893402099609375e+01 -5.024316406250000000e+01
-2.305709457397460938e+01 -6.216640472412109375e+01 -4.251950836181640625e+01
-3.589341735839843750e+01 -7.828334808349609375e+01 -4.791628265380859375e+01
-3.761148834228515625e+01 -7.586274719238281250e+01 -4.411906433105468750e+01
-3.645973968505859375e+01 -6.044514846801757812e+01 -5.200418853759765625e+01
-3.457854080200195312e+01 -6.350728607177734375e+01 -5.468623733520507812e+01
-2.513452911376953125e+01 -7.726955413818359375e+01 -3.864382553100585938e+01
-2.635472488403320312e+01 -7.951889038085937500e+01 -4.581048202514648438e+01
-2.455001258850097656e+01 -7.873515319824218750e+01 -4.246853637695312500e+01
-3.584813308715820312e+01 -7.409257507324218750e+01 -3.944542694091796875e+01
-3.779321289062500000e+01 -7.956374359130859375e+01 -4.329970550537109375e+01
-3.514953994750976562e+01 -9.406729888916015625e+01 -4.626180267333984375e+01
-3.572663879394531250e+01 -8.493709564208984375e+01 -4.677961349487304688e+01
-3.209238433837890625e+01 -8.641217041015625000e+01 -4.749363327026367188e+01
-3.289546585083007812e+01 -9.486193084716796875e+01 -4.666555404663085938e+01
-3.595835876464843750e+01 -8.168967437744140625e+01 -4.710965347290039062e+01
-3.772130203247070312e+01 -8.350979614257812500e+01 -4.303563690185546875e+01
-2.650167465209960938e+01 -9.594664001464843750e+01 -3.903342056274414062e+01
-2.717320632934570312e+01 -9.541445159912109375e+01 -4.319649124145507812e+01
-2.773107528686523438e+01 -9.540626525878906250e+01 -3.688693237304687500e+01
-3.495350265502929688e+01 -5.636317062377929688e+01 -4.630803680419921875e+01
-3.396241760253906250e+01 -9.341274261474609375e+01 -3.594876861572265625e+01
-3.033168411254882812e+01 -9.507514190673828125e+01 -3.554486846923828125e+01
-2.843853759765625000e+01 -8.677531433105468750e+01 -4.607533645629882812e+01
-2.984546852111816406e+01 -9.500636291503906250e+01 -4.583388519287109375e+01
-3.712605285644531250e+01 -9.304575347900390625e+01 -4.397998809814453125e+01
-3.705479049682617188e+01 -9.212624359130859375e+01 -3.929912948608398438e+01
-3.705419921875000000e+01 -9.806333160400390625e+01 -4.371967315673828125e+01
-3.684024047851562500e+01 -9.687605285644531250e+01 -3.923807907104492188e+01
-3.337275695800781250e+01 -9.840209960937500000e+01 -3.595631027221679688e+01
-3.006438255310058594e+01 -9.840020751953125000e+01 -3.556338500976562500e+01
-2.773324584960937500e+01 -9.852766418457031250e+01 -3.669829559326171875e+01
-3.495528793334960938e+01 -9.858982849121093750e+01 -4.599898529052734375e+01
-3.266832733154296875e+01 -9.865177154541015625e+01 -4.640933990478515625e+01
-2.971451950073242188e+01 -9.753430175781250000e+01 -4.560832977294921875e+01
-3.484711456298828125e+01 -1.033644027709960938e+02 -4.565795135498046875e+01
-3.660608291625976562e+01 -1.046106567382812500e+02 -4.291243743896484375e+01
-2.970998573303222656e+01 -1.123412857055664062e+02 -3.585362625122070312e+01
-3.028124618530273438e+01 -1.086818389892578125e+02 -3.564748001098632812e+01
-3.131101608276367188e+01 -1.089016571044921875e+02 -3.591419601440429688e+01
-3.052097129821777344e+01 -1.125871582031250000e+02 -3.588596725463867188e+01
-3.237818908691406250e+01 -1.040650024414062500e+02 -3.592397689819335938e+01
-3.309503555297851562e+01 -1.054014129638671875e+02 -3.644678497314453125e+01
-3.557517623901367188e+01 -1.045022583007812500e+02 -3.863794708251953125e+01
-3.422881317138671875e+01 -1.097303009033203125e+02 -3.823939895629882812e+01
-3.509063720703125000e+01 -1.106042098999023438e+02 -4.263960647583007812e+01
-3.397761154174804688e+01 -1.141755523681640625e+02 -4.171318817138671875e+01
-3.348898696899414062e+01 -1.132408905029296875e+02 -3.777363586425781250e+01
-3.630068969726562500e+01 -1.062512664794921875e+02 -4.171452331542968750e+01
-3.104237747192382812e+01 -1.149664535522460938e+02 -3.628191375732421875e+01
-3.054021263122558594e+01 -1.155305175781250000e+02 -3.648206329345703125e+01
-3.592340850830078125e+01 -1.025755615234375000e+02 -3.863985443115234375e+01
-2.921001625061035156e+01 -1.025609970092773438e+02 -3.551995468139648438e+01
-2.807387161254882812e+01 -1.088325958251953125e+02 -3.585601043701171875e+01
-2.835932540893554688e+01 -1.133094635009765625e+02 -3.639772415161132812e+01
-2.966335487365722656e+01 -1.159996490478515625e+02 -3.719884490966796875e+01
-2.646349525451660156e+01 -1.076291122436523438e+02 -3.682569122314453125e+01
-2.708747291564941406e+01 -1.128730239868164062e+02 -3.727808380126953125e+01
-2.830024719238281250e+01 -1.153263320922851562e+02 -3.807341384887695312e+01
-2.568459510803222656e+01 -1.066893920898437500e+02 -3.899350738525390625e+01
-2.619874954223632812e+01 -1.120218353271484375e+02 -3.882294082641601562e+01
-2.630667495727539062e+01 -1.005557861328125000e+02 -3.958213424682617188e+01
-2.716175842285156250e+01 -1.015601577758789062e+02 -3.689522552490234375e+01
-2.738179969787597656e+01 -1.144531402587890625e+02 -3.896340179443359375e+01
-3.203218841552734375e+01 -1.169711914062500000e+02 -3.847219085693359375e+01
-3.016913414001464844e+01 -1.169311981201171875e+02 -3.937812042236328125e+01
-3.279821014404296875e+01 -1.161588516235351562e+02 -3.811132812500000000e+01
-3.476313400268554688e+01 -1.101992340087890625e+02 -4.369008255004882812e+01
-3.326118469238281250e+01 -1.144673080444335938e+02 -4.272431182861328125e+01
-3.331769561767578125e+01 -1.095895004272460938e+02 -4.497148513793945312e+01
-3.196706008911132812e+01 -1.143381118774414062e+02 -4.335374832153320312e+01
-3.252125549316406250e+01 -1.164122161865234375e+02 -4.119816589355468750e+01
-3.338378524780273438e+01 -1.157711334228515625e+02 -4.027244949340820312e+01
-2.641052818298339844e+01 -9.869523620605468750e+01 -3.936994171142578125e+01
-2.713071632385253906e+01 -9.774618530273437500e+01 -4.277428436279296875e+01
-2.725784873962402344e+01 -9.981716156005859375e+01 -4.295637512207031250e+01
-2.651124000549316406e+01 -1.064988250732421875e+02 -4.200829315185546875e+01
-2.984413528442382812e+01 -1.000969085693359375e+02 -4.556434631347656250e+01
-3.262653732299804688e+01 -1.019204711914062500e+02 -4.621733856201171875e+01
-3.126230430603027344e+01 -1.087933502197265625e+02 -4.531524658203125000e+01
-2.885674476623535156e+01 -1.077460784912109375e+02 -4.447554779052734375e+01
-3.056177139282226562e+01 -1.139006805419921875e+02 -4.330961227416992188e+01
-2.844503211975097656e+01 -1.126649627685546875e+02 -4.286157608032226562e+01
-2.664339637756347656e+01 -1.117835693359375000e+02 -4.103835678100585938e+01
-3.053764724731445312e+01 -1.159254760742187500e+02 -4.114282989501953125e+01
-3.145107460021972656e+01 -1.165084686279296875e+02 -4.126344299316406250e+01
-2.942394065856933594e+01 -1.158729705810546875e+02 -3.953275680541992188e+01
-2.895858192443847656e+01 -1.147799682617187500e+02 -4.112659835815429688e+01
-2.798244857788085938e+01 -1.145645904541015625e+02 -4.016600799560546875e+01
-3.439493942260742188e+01 -6.083160400390625000e+01 -5.634712982177734375e+01
2.443632507324218750e+01 -6.628497314453125000e+01 -4.140406417846679688e+01
2.100638198852539062e+01 -6.352613449096679688e+01 -4.074695587158203125e+01
8.934286117553710938e+00 -7.253347015380859375e+01 -4.963520050048828125e+01
9.645612716674804688e+00 -6.619235992431640625e+01 -4.463514709472656250e+01
1.201123142242431641e+01 -7.705357360839843750e+01 -5.123983001708984375e+01
2.127820205688476562e+01 -7.791737365722656250e+01 -5.008281326293945312e+01
1.695640563964843750e+01 -7.824765014648437500e+01 -5.177976608276367188e+01
1.538499164581298828e+01 -6.300349807739257812e+01 -4.076566696166992188e+01
2.644150924682617188e+01 -7.031199645996093750e+01 -4.381632614135742188e+01
2.547473907470703125e+01 -7.488526153564453125e+01 -4.745368957519531250e+01
2.156794738769531250e+01 -7.379935455322265625e+01 -3.863100051879882812e+01
2.069768142700195312e+01 -7.823656463623046875e+01 -4.211333084106445312e+01
1.666007995605468750e+01 -8.118728637695312500e+01 -4.455005645751953125e+01
1.253928089141845703e+01 -8.109914398193359375e+01 -4.710874938964843750e+01
9.185810089111328125e+00 -7.951310729980468750e+01 -4.764917755126953125e+01
1.950953483581542969e+01 -6.934091186523437500e+01 -3.682195281982421875e+01
1.614806747436523438e+01 -6.666014099121093750e+01 -3.658256530761718750e+01
1.106259250640869141e+01 -6.572252655029296875e+01 -3.833209991455078125e+01
1.385338306427001953e+01 -7.226204681396484375e+01 -3.104037475585937500e+01
1.124200439453125000e+01 -8.025434875488281250e+01 -2.589165115356445312e+01
4.046652317047119141e+00 -9.438501739501953125e+01 -2.516120910644531250e+01
5.891360282897949219e+00 -9.122608184814453125e+01 -3.020212745666503906e+01
7.318050384521484375e+00 -9.106373596191406250e+01 -2.796240234375000000e+01
5.550457000732421875e+00 -9.432255554199218750e+01 -2.385333442687988281e+01
8.169538497924804688e+00 -8.800628662109375000e+01 -3.275962448120117188e+01
8.643274307250976562e+00 -8.833132171630859375e+01 -3.018503952026367188e+01
1.068909263610839844e+01 -8.550341796875000000e+01 -2.825762557983398438e+01
9.337056159973144531e+00 -8.838584136962890625e+01 -2.393334579467773438e+01
1.053657722473144531e+01 -8.266656494140625000e+01 -2.490441513061523438e+01
9.162549018859863281e+00 -8.392274475097656250e+01 -2.172171020507812500e+01
8.122157096862792969e+00 -9.120506286621093750e+01 -2.039177322387695312e+01
5.400930404663085938e+00 -9.492412567138671875e+01 -2.079714965820312500e+01
5.864775657653808594e+00 -9.292046356201171875e+01 -1.786829185485839844e+01
3.532626390457153320e+00 -9.505039978027343750e+01 -2.109255027770996094e+01
1.129569530487060547e+01 -8.483444213867187500e+01 -2.950664710998535156e+01
7.617870330810546875e+00 -8.569033050537109375e+01 -3.956424331665039062e+01
4.305932521820068359e+00 -8.983687591552734375e+01 -3.316646575927734375e+01
2.142012119293212891e+00 -9.287203979492187500e+01 -2.683544921875000000e+01
2.139094352722167969e+00 -9.362609863281250000e+01 -2.186830902099609375e+01
2.190574884414672852e+00 -8.764617156982421875e+01 -3.470765304565429688e+01
8.106877207756042480e-01 -9.007772827148437500e+01 -2.829661178588867188e+01
8.626797795295715332e-01 -9.068350982666015625e+01 -2.336675071716308594e+01
7.100095152854919434e-01 -8.413924407958984375e+01 -3.424234008789062500e+01
7.953326404094696045e-02 -8.696684265136718750e+01 -2.792856788635253906e+01
5.184371948242187500e+00 -7.717819213867187500e+01 -4.431064605712890625e+01
6.305394649505615234e+00 -8.218029022216796875e+01 -4.361553955078125000e+01
5.203583240509033203e-01 -8.847666931152343750e+01 -2.414476394653320312e+01
4.148570537567138672e+00 -9.263090515136718750e+01 -1.715388488769531250e+01
2.118937015533447266e+00 -9.077180480957031250e+01 -1.755626869201660156e+01
8.706321716308593750e+00 -8.079835510253906250e+01 -2.172751998901367188e+01
7.616134643554687500e+00 -8.668527221679687500e+01 -1.854433631896972656e+01
6.620684146881103516e+00 -8.446784973144531250e+01 -1.841858482360839844e+01
7.924735069274902344e+00 -7.755590820312500000e+01 -2.294022750854492188e+01
