-3.562279129028320312e+01 -3.899369430541992188e+01 -6.739107513427734375e+01
-3.229674148559570312e+01 -4.605102157592773438e+01 -6.616828918457031250e+01
-3.360642623901367188e+01 -4.797195434570312500e+01 -5.726910400390625000e+01
-3.809811401367187500e+01 -4.248179244995117188e+01 -5.797186279296875000e+01
5.794221878051757812e+01 -4.860084152221679688e+01 -5.131935501098632812e+01
5.399508666992187500e+01 -3.890734863281250000e+01 -5.812864303588867188e+01
-1.808044052124023438e+01 -3.266679000854492188e+01 -1.091409454345703125e+02
-1.412512397766113281e+01 -3.190456771850585938e+01 -1.153527069091796875e+02
-1.101611042022705078e+01 -2.863062095642089844e+01 -1.209549331665039062e+02
5.460984706878662109e+00 -4.921324920654296875e+01 -8.870560455322265625e+01
9.564164161682128906e+00 -4.589298629760742188e+01 -1.022578048706054688e+02
1.365887928009033203e+01 -4.808145904541015625e+01 -1.008748931884765625e+02
7.431691169738769531e+00 -5.033564758300781250e+01 -8.766544342041015625e+01
1.976082229614257812e+01 -6.037911987304687500e+01 -8.003607177734375000e+01
2.564756774902343750e+01 -5.842487716674804688e+01 -9.246121215820312500e+01
2.889282226562500000e+01 -6.569606018066406250e+01 -7.178729248046875000e+01
1.881001091003417969e+01 -4.031254577636718750e+01 -1.108563613891601562e+02
1.346140766143798828e+01 -3.541422271728515625e+01 -1.175497283935546875e+02
2.165023422241210938e+01 -3.542244338989257812e+01 -1.168853149414062500e+02
4.217519283294677734e+00 -3.444146728515625000e+01 -1.199564208984375000e+02
-4.849025726318359375e+00 -3.214376068115234375e+01 -1.213635635375976562e+02
-1.249559497833251953e+01 -3.917483091354370117e+00 -1.104411849975585938e+02
2.912292480468750000e+01 -3.419348907470703125e+01 -1.148484497070312500e+02
4.586378860473632812e+01 -6.901522827148437500e+01 -6.402973937988281250e+01
4.797840118408203125e+01 -7.026382446289062500e+01 -5.703466796875000000e+01
4.277327346801757812e+01 -6.742167663574218750e+01 -5.214735031127929688e+01
4.007662200927734375e+01 -6.684092712402343750e+01 -5.772690582275390625e+01
3.828841400146484375e+01 -3.820449829101562500e+01 -1.958320999145507812e+01
3.760705566406250000e+01 -4.511234664916992188e+01 -2.336078834533691406e+01
3.849300003051757812e+01 -4.544950103759765625e+01 -3.222080230712890625e+01
-5.640428543090820312e+00 -4.833812713623046875e+01 -9.312850189208984375e+01
-1.580765247344970703e+01 -4.449688720703125000e+01 -9.754533386230468750e+01
2.174276351928710938e+01 -5.077239608764648438e+01 -2.378319549560546875e+01
2.955584144592285156e+01 -5.002637481689453125e+01 1.054445171356201172e+01
3.264727401733398438e+01 -5.393891143798828125e+01 7.870652675628662109e+00
3.547919082641601562e+01 -4.447703552246093750e+01 -6.823003292083740234e+00
3.184060668945312500e+01 -3.970812988281250000e+01 -3.207582950592041016e+00
1.722841644287109375e+01 -4.881277847290039062e+01 -1.466409492492675781e+01
2.119105148315429688e+01 -5.092583465576171875e+01 -1.857756042480468750e+01
2.047464942932128906e+01 -5.169423294067382812e+01 -1.497707843780517578e+01
1.632890129089355469e+01 -5.005907440185546875e+01 -1.057148933410644531e+01
-1.536819458007812500e+01 -4.966244506835937500e+01 -2.983276939392089844e+01
-1.592207908630371094e+01 -4.867227554321289062e+01 -3.651996994018554688e+01
1.440888500213623047e+01 -2.561382484436035156e+01 -1.762211227416992188e+01
2.679714393615722656e+01 -2.456033134460449219e+01 -1.970002937316894531e+01
2.757605552673339844e+01 -2.098427772521972656e+01 -3.022814941406250000e+01
-3.044772624969482422e+00 -4.537559890747070312e+01 -4.638317489624023438e+01
-4.160356044769287109e+00 -4.693248748779296875e+01 -3.797965240478515625e+01
-8.511322975158691406e+00 -4.711519622802734375e+01 -3.963588714599609375e+01
1.590598773956298828e+01 -4.978865432739257812e+01 -2.914269447326660156e+01
1.663016700744628906e+01 -5.062157058715820312e+01 -2.264343070983886719e+01
1.319878196716308594e+01 -4.994688034057617188e+01 -2.463714027404785156e+01
1.167531585693359375e+01 -4.873122406005859375e+01 -3.141188621520996094e+01
-2.988043212890625000e+01 -2.609865951538085938e+01 -7.572045135498046875e+01
-3.189575195312500000e+01 -3.648074722290039062e+01 -7.913032531738281250e+01
3.080477523803710938e+01 -6.415375518798828125e+01 9.963889122009277344e+00
3.176738357543945312e+01 -6.085121917724609375e+01 7.346313476562500000e+00
-1.597057104110717773e+00 -4.512723159790039062e+01 -5.726044845581054688e+01
2.850386047363281250e+01 -1.890563011169433594e+01 -4.407186889648437500e+01
-6.173851490020751953e-01 -4.662017059326171875e+01 -6.840696716308593750e+01
-2.653953933715820312e+01 -3.168928146362304688e+01 -3.262203598022460938e+01
-2.967711257934570312e+01 -3.750216674804687500e+01 -3.180947494506835938e+01
-2.769079971313476562e+01 -4.198114395141601562e+01 -2.949994277954101562e+01
-2.655599021911621094e+01 -3.726631546020507812e+01 -2.639526748657226562e+01
1.368066120147705078e+01 -5.638126754760742188e+01 1.693655729293823242e+00
1.703586006164550781e+01 -6.029178619384765625e+01 -7.172507047653198242e-01
1.687188720703125000e+01 -6.316250610351562500e+01 2.492166519165039062e+00
1.324001789093017578e+01 -5.931023406982421875e+01 5.485764026641845703e+00
2.664604187011718750e+01 -5.110108566284179688e+01 -1.974151992797851562e+01
3.271183013916015625e+01 -4.963644409179687500e+01 -1.983478546142578125e+01
3.092831039428710938e+01 -5.203699874877929688e+01 -1.394988727569580078e+01
2.514696121215820312e+01 -5.276712036132812500e+01 -1.473779773712158203e+01
3.645333099365234375e+01 -4.644304275512695312e+01 -1.622502136230468750e+01
3.514072418212890625e+01 -4.902565765380859375e+01 -1.114564704895019531e+01
1.364220142364501953e+01 -5.170629119873046875e+01 5.821389198303222656e+00
1.807678222656250000e+01 -4.763830947875976562e+01 1.000204277038574219e+01
1.864485549926757812e+01 -3.916872406005859375e+01 -3.321345806121826172e+00
1.500905799865722656e+01 -4.561518096923828125e+01 -5.497205734252929688e+00
-6.232303619384765625e+00 -1.131383037567138672e+01 -7.359046173095703125e+01
-1.485966682434082031e+01 -1.368587493896484375e+01 -7.775494384765625000e+01
-1.932188606262207031e+01 -1.786314010620117188e+01 -6.423051452636718750e+01
-2.410733604431152344e+01 -2.163012695312500000e+01 -5.164533615112304688e+01
-2.748424339294433594e+01 -2.720810890197753906e+01 -3.974000930786132812e+01
-1.891529273986816406e+01 -2.298383331298828125e+01 -3.502462387084960938e+01
-2.468077468872070312e+01 -2.023672103881835938e+01 -6.875169372558593750e+01
1.405395221710205078e+01 -3.967391204833984375e+01 -1.100348472595214844e+01
1.881379318237304688e+01 -3.260974884033203125e+01 -1.185055065155029297e+01
1.338191986083984375e+01 -3.151127052307128906e+01 -1.258351898193359375e+01
-6.729949951171875000e+00 -4.736912918090820312e+01 -7.082444763183593750e+01
3.284506225585937500e+01 -5.753548431396484375e+01 4.148890972137451172e+00
2.974727821350097656e+01 -8.521098136901855469e+00 -9.509495544433593750e+01
1.837038230895996094e+01 -3.570389509201049805e+00 -9.490886688232421875e+01
1.939399337768554688e+01 -6.201505184173583984e+00 -8.843040466308593750e+01
3.166892433166503906e+01 -1.183071804046630859e+01 -8.837500000000000000e+01
2.361606407165527344e+01 -6.197603225708007812e+01 -1.503360748291015625e+00
2.968266677856445312e+01 -6.100513839721679688e+01 3.127852082252502441e-01
-2.182731246948242188e+01 -5.016622161865234375e+01 -3.719489669799804688e+01
-2.080190658569335938e+01 -4.958435058593750000e+01 -3.135934829711914062e+01
-2.400529861450195312e+01 -4.896071624755859375e+01 -3.011138916015625000e+01
-2.644186973571777344e+01 -5.200068283081054688e+01 -3.483761596679687500e+01
-1.875542259216308594e+01 -1.546491527557373047e+01 -8.151831054687500000e+01
-4.158696746826171875e+01 -3.928029632568359375e+01 -4.773416519165039062e+01
-3.668087768554687500e+01 -3.194441604614257812e+01 -4.289420318603515625e+01
-1.128668689727783203e+01 -9.138763427734375000e+00 -8.959910583496093750e+01
-3.116437435150146484e+00 -7.353880405426025391e+00 -8.574897766113281250e+01
-1.958453774452209473e+00 -3.700991153717041016e+00 -9.368190002441406250e+01
-7.618826866149902344e+00 -2.520750427246093750e+01 -2.311348533630371094e+01
2.247155159711837769e-01 -1.078095245361328125e+01 -6.843770599365234375e+01
3.354758501052856445e+00 -7.422265529632568359e+00 -8.203704833984375000e+01
5.373122215270996094e+00 -3.641506910324096680e+00 -9.165702056884765625e+01
5.957559108734130859e+00 -5.668985247611999512e-01 -9.752832031250000000e+01
-2.240406274795532227e+00 -8.447647094726562500e-01 -9.926142883300781250e+01
2.365948867797851562e+01 -4.782496643066406250e+01 1.166469001770019531e+01
1.730519676208496094e+01 -5.182810592651367188e+01 1.419827842712402344e+01
-2.142667293548583984e+00 1.072740674018859863e+00 -1.059170684814453125e+02
6.492228031158447266e+00 1.841871857643127441e+00 -1.034331054687500000e+02
1.133069133758544922e+01 -8.138601303100585938e+00 -7.856788635253906250e+01
2.078273391723632812e+01 -1.056462383270263672e+01 -7.523288726806640625e+01
8.328227996826171875e+00 -1.074533081054687500e+01 -6.546154022216796875e+01
1.798693466186523438e+01 -1.257545852661132812e+01 -6.107586669921875000e+01
2.274602413177490234e+00 -2.024536514282226562e+01 -2.287182235717773438e+01
1.235895538330078125e+01 -6.802406311035156250e+01 1.986485862731933594e+01
1.304500389099121094e+01 -5.938285446166992188e+01 1.333697700500488281e+01
1.276332950592041016e+01 -6.293746948242187500e+01 8.956892013549804688e+00
1.141078186035156250e+01 -7.044578552246093750e+01 1.652285766601562500e+01
1.330350208282470703e+01 -5.523442840576171875e+01 9.831451416015625000e+00
1.684414672851562500e+01 -5.616437530517578125e+01 1.701801490783691406e+01
3.032759094238281250e+01 -1.754776573181152344e+01 -5.881425857543945312e+01
1.321471691131591797e+01 -4.939997482299804688e+01 -1.817358589172363281e+01
3.436524963378906250e+01 -1.724671173095703125e+01 -7.424907684326171875e+01
4.231806945800781250e+01 -2.613352394104003906e+01 -5.279912185668945312e+01
4.529142379760742188e+01 -2.742606544494628906e+01 -6.507147216796875000e+01
3.962780761718750000e+01 -1.948010253906250000e+01 -9.032057189941406250e+01
4.547344970703125000e+01 -2.761771583557128906e+01 -7.980073547363281250e+01
3.601447677612304688e+01 -1.364813995361328125e+01 -1.029713363647460938e+02
3.711520004272460938e+01 -1.595873737335205078e+01 -9.666474151611328125e+01
5.262627410888671875e+01 -3.674156951904296875e+01 -7.073175811767578125e+01
2.387942504882812500e+01 -7.403039550781250000e+01 1.233134460449218750e+01
1.830618667602539062e+01 -7.404875946044921875e+01 1.077116775512695312e+01
2.918243408203125000e+01 -6.099746227264404297e+00 -1.010459136962890625e+02
3.575023269653320312e+01 -6.705092620849609375e+01 -6.362101364135742188e+01
-3.447888135910034180e+00 -4.820417404174804688e+01 -8.067521667480468750e+01
9.960285425186157227e-01 -4.781299591064453125e+01 -7.840362548828125000e+01
-1.990786361694335938e+01 -4.625859451293945312e+01 -8.922500610351562500e+01
-9.874144554138183594e+00 -4.896286392211914062e+01 -8.459299468994140625e+01
2.759651756286621094e+01 -7.246611022949218750e+01 1.543810081481933594e+01
-5.840188026428222656e+00 -4.814525222778320312e+01 -1.777050399780273438e+01
-7.655417442321777344e+00 -4.690174102783203125e+01 -1.914510536193847656e+01
5.381439971923828125e+01 -6.603249359130859375e+01 -6.774804687500000000e+01
5.525637054443359375e+01 -6.816139221191406250e+01 -6.093610763549804688e+01
6.280839920043945312e+01 -5.831147384643554688e+01 -5.738248443603515625e+01
6.061780929565429688e+01 -6.404016113281250000e+01 -6.002622222900390625e+01
5.926957321166992188e+01 -5.986991119384765625e+01 -6.807508850097656250e+01
6.118941497802734375e+01 -5.302526092529296875e+01 -6.592406463623046875e+01
3.516419887542724609e+00 -4.863345336914062500e+01 -8.930398559570312500e+01
3.259141370654106140e-02 -4.839334106445312500e+01 -8.999533843994140625e+01
-2.603139114379882812e+01 -2.412993240356445312e+01 -8.730725860595703125e+01
-2.740666580200195312e+01 -3.580981445312500000e+01 -8.945838928222656250e+01
3.668723297119140625e+01 -4.079456329345703125e+01 -1.276180744171142578e+01
3.428932952880859375e+01 -3.065246963500976562e+01 -1.766228103637695312e+01
3.273220062255859375e+01 -3.480815505981445312e+01 -1.004774188995361328e+01
2.549788284301757812e+01 -3.647390747070312500e+01 -3.257433414459228516e+00
1.358400249481201172e+01 -4.621148681640625000e+01 -1.274369430541992188e+01
1.553922080993652344e+01 -4.316400909423828125e+01 -1.169732570648193359e+01
1.875757598876953125e+01 -5.338413238525390625e+01 -9.651506042480468750e+01
1.179876708984375000e+01 -5.392675781250000000e+01 -8.484485626220703125e+01
3.900729751586914062e+01 -6.277009201049804688e+01 -5.159348297119140625e+01
4.178927612304687500e+01 -5.948170089721679688e+01 -4.580802154541015625e+01
5.074404239654541016e+00 -4.751129531860351562e+01 -3.531179046630859375e+01
-5.548199653625488281e+00 -3.283685302734375000e+01 -1.458695220947265625e+01
2.325353384017944336e+00 -2.785951614379882812e+01 -1.338477134704589844e+01
5.162114620208740234e+00 -4.918136978149414062e+01 -2.714223861694335938e+01
2.635684585571289062e+01 -6.863576507568359375e+01 2.183598899841308594e+01
2.821008300781250000e+01 -7.102745056152343750e+01 1.844950103759765625e+01
2.643084716796875000e+01 -3.125240707397460938e+01 -1.030780506134033203e+01
-1.610878944396972656e+01 -4.868643951416015625e+01 -4.359153366088867188e+01
-1.099593353271484375e+01 -3.014310073852539062e+01 -2.020070838928222656e+01
-6.678205966949462891e+00 -4.089522171020507812e+01 -1.547245502471923828e+01
-3.895876312255859375e+01 -4.573096847534179688e+01 -5.253534698486328125e+01
1.855251502990722656e+01 -1.026367902755737305e+00 -1.013100738525390625e+02
1.593620491027832031e+01 -6.667884826660156250e+01 6.076542854309082031e+00
1.386764240264892578e+01 -7.266767883300781250e+01 1.168993186950683594e+01
1.542666149139404297e+01 -6.593241119384765625e+01 2.228877067565917969e+01
2.136796379089355469e+01 -6.538155364990234375e+01 2.329883766174316406e+01
-2.244836807250976562e+01 -3.545221328735351562e+01 -9.887198638916015625e+01
3.326991558074951172e+00 -4.800746154785156250e+01 -7.663098907470703125e+01
5.824813842773437500e+01 -4.386623001098632812e+01 -6.379850006103515625e+01
6.153922653198242188e+01 -5.217813110351562500e+01 -5.460566329956054688e+01
5.073185920715332031e+00 -4.963620376586914062e+01 -2.139399337768554688e+01
-3.144940757751464844e+01 -3.257942962646484375e+01 -3.666240310668945312e+01
-2.054271888732910156e+01 -2.819987869262695312e+01 -2.720017433166503906e+01
-2.169363021850585938e+01 -3.315683364868164062e+01 -2.064360618591308594e+01
-1.537864875793457031e+01 -3.468489074707031250e+01 -1.615897941589355469e+01
-1.042624378204345703e+01 -4.079560470581054688e+01 -1.466907501220703125e+01
1.433282756805419922e+01 -7.056089019775390625e+01 2.453860855102539062e+01
2.012847518920898438e+01 -6.994480895996093750e+01 2.582742881774902344e+01
2.504467964172363281e+01 -7.298030090332031250e+01 2.462222099304199219e+01
2.686972618103027344e+01 -7.488835144042968750e+01 2.149847412109375000e+01
2.639912796020507812e+01 -7.565416717529296875e+01 1.741420555114746094e+01
1.144620513916015625e+01 -7.279499816894531250e+01 2.205499839782714844e+01
1.082657909393310547e+01 -7.511674499511718750e+01 1.903697776794433594e+01
1.321661949157714844e+01 -7.573355865478515625e+01 1.399463176727294922e+01
1.074544715881347656e+01 -7.775523376464843750e+01 2.361365127563476562e+01
1.370217323303222656e+01 -7.847013854980468750e+01 2.782774353027343750e+01
2.439642715454101562e+01 -8.618965148925781250e+01 2.846599960327148438e+01
2.383245849609375000e+01 -8.050327301025390625e+01 2.830908203125000000e+01
2.244692802429199219e+01 -8.227362060546875000e+01 2.969312477111816406e+01
2.258430480957031250e+01 -8.725105285644531250e+01 3.076488113403320312e+01
2.163685607910156250e+01 -9.177072143554687500e+01 3.199131774902343750e+01
2.337631416320800781e+01 -9.112490844726562500e+01 2.972371292114257812e+01
1.907298660278320312e+01 -7.929561614990234375e+01 2.968651962280273438e+01
1.864475631713867188e+01 -8.584065246582031250e+01 3.131188964843750000e+01
1.427261161804199219e+01 -8.574539947509765625e+01 3.000518417358398438e+01
1.432835197448730469e+01 -9.098895263671875000e+01 3.144107627868652344e+01
1.793823623657226562e+01 -9.098501586914062500e+01 3.266319656372070312e+01
1.504422187805175781e+01 -8.107376098632812500e+01 2.924586486816406250e+01
1.911840438842773438e+01 -7.705407714843750000e+01 2.898393630981445312e+01
2.141502189636230469e+01 -9.489302062988281250e+01 3.075263977050781250e+01
2.042368316650390625e+01 -9.400740051269531250e+01 3.251548004150390625e+01
1.730504798889160156e+01 -9.386685180664062500e+01 3.291040802001953125e+01
1.676003646850585938e+01 -9.715747070312500000e+01 3.168873023986816406e+01
2.613985252380371094e+01 -7.900584411621093750e+01 2.355851364135742188e+01
2.484396934509277344e+01 -8.651625823974609375e+01 2.624718093872070312e+01
2.331640052795410156e+01 -9.174694061279296875e+01 2.720510482788085938e+01
2.107540893554687500e+01 -9.533603668212890625e+01 2.844114303588867188e+01
2.354198837280273438e+01 -8.810279083251953125e+01 2.354482269287109375e+01
2.205010604858398438e+01 -9.210585784912109375e+01 2.499889564514160156e+01
1.976956558227539062e+01 -9.478768157958984375e+01 2.602743148803710938e+01
2.061794281005859375e+01 -8.912315368652343750e+01 2.144616317749023438e+01
1.959242820739746094e+01 -9.245227050781250000e+01 2.331985664367675781e+01
2.290799903869628906e+01 -7.885621643066406250e+01 1.636004829406738281e+01
2.576218795776367188e+01 -7.813122558593750000e+01 1.905441284179687500e+01
1.878202438354492188e+01 -9.425547027587890625e+01 2.464299964904785156e+01
1.598372936248779297e+01 -9.804118347167968750e+01 2.973589134216308594e+01
1.150172138214111328e+01 -8.452815246582031250e+01 2.733601951599121094e+01
1.198032379150390625e+01 -9.147026062011718750e+01 2.918613624572753906e+01
1.044124794006347656e+01 -8.497901916503906250e+01 2.516410446166992188e+01
1.125160789489746094e+01 -9.174855041503906250e+01 2.707592773437500000e+01
1.314119720458984375e+01 -9.521723937988281250e+01 3.038454818725585938e+01
1.446497344970703125e+01 -9.373939514160156250e+01 3.189684486389160156e+01
2.301505851745605469e+01 -7.596571350097656250e+01 1.379176902770996094e+01
1.710427665710449219e+01 -7.610776519775390625e+01 1.239066028594970703e+01
1.716405105590820312e+01 -7.895540618896484375e+01 1.444038391113281250e+01
1.641873550415039062e+01 -8.909234619140625000e+01 2.021497535705566406e+01
1.316686820983886719e+01 -7.900817871093750000e+01 1.579408836364746094e+01
1.047814464569091797e+01 -7.990026855468750000e+01 2.051514434814453125e+01
1.055769634246826172e+01 -8.677342224121093750e+01 2.296834182739257812e+01
1.229816627502441406e+01 -8.801246643066406250e+01 2.090375900268554688e+01
1.152713108062744141e+01 -9.177486419677734375e+01 2.471074485778808594e+01
1.308023357391357422e+01 -9.196590423583984375e+01 2.306176567077636719e+01
1.627025032043457031e+01 -9.251480865478515625e+01 2.257772445678710938e+01
1.317739582061767578e+01 -9.499894714355468750e+01 2.618663406372070312e+01
1.260240364074707031e+01 -9.543988037109375000e+01 2.855399703979492188e+01
1.629838180541992188e+01 -9.656929016113281250e+01 2.689554405212402344e+01
1.389137840270996094e+01 -9.422384643554687500e+01 2.467232513427734375e+01
1.652748870849609375e+01 -9.497389221191406250e+01 2.485825729370117188e+01
4.626498699188232422e+00 -6.920788574218750000e+01 8.656141281127929688e+00
-7.644394636154174805e-01 -7.094803619384765625e+01 5.579577445983886719e+00
5.631328821182250977e-01 -6.752706146240234375e+01 2.421368360519409180e+00
5.412267684936523438e+00 -6.603092193603515625e+01 5.508085727691650391e+00
2.118506193161010742e+00 -6.004921722412109375e+01 1.735757827758789062e+01
5.742748737335205078e+00 -6.327789306640625000e+01 1.475734233856201172e+01
6.348127841949462891e+00 -5.952776336669921875e+01 1.255797290802001953e+01
1.922384977340698242e+00 -5.565245437622070312e+01 1.502395820617675781e+01
-3.825405836105346680e+00 -5.856470870971679688e+01 1.742778015136718750e+01
-4.168398857116699219e+00 -5.403613281250000000e+01 1.427623462677001953e+01
2.645748138427734375e+00 -5.168803024291992188e+01 1.217688465118408203e+01
7.209837913513183594e+00 -5.563562011718750000e+01 9.448041915893554688e+00
1.124778556823730469e+01 -4.296662521362304688e+01 -6.404742240905761719e+00
7.503768920898437500e+00 -3.766018295288085938e+01 -3.815502166748046875e+00
-1.204852819442749023e+00 -5.103451538085937500e+01 -1.593481445312500000e+01
-4.198730945587158203e+00 -5.016564178466796875e+01 -1.411753559112548828e+01
6.175585269927978516e+00 -6.658641052246093750e+01 1.161956882476806641e+01
7.072073936462402344e+00 -6.295319747924804688e+01 9.271084785461425781e+00
-7.801958560943603516e+00 -6.220418548583984375e+01 -1.813631951808929443e-01
-2.883696794509887695e+00 -6.437518310546875000e+01 -1.441851854324340820e+00
-4.571089267730712891e+00 -6.729090118408203125e+01 2.155120372772216797e+00
-9.434555053710937500e+00 -6.456124114990234375e+01 3.953436374664306641e+00
9.616641044616699219e+00 -4.938375091552734375e+01 -1.291874217987060547e+01
4.542470932006835938e+00 -5.101164627075195312e+01 -1.540347099304199219e+01
1.113250541687011719e+01 -4.717376708984375000e+01 -9.582363128662109375e+00
-1.084109210968017578e+01 -5.790001678466796875e+01 3.376318454742431641e+00
-1.011407279968261719e+01 -5.302943038940429688e+01 7.790127754211425781e+00
-6.401518344879150391e+00 -3.956985473632812500e+01 -6.462995052337646484e+00
-7.848447322845458984e+00 -4.507813644409179688e+01 -9.876729011535644531e+00
7.909084320068359375e+00 -5.951347732543945312e+01 5.993337154388427734e+00
2.545176029205322266e+00 -6.465236663818359375e+01 -4.602436125278472900e-01
6.308265686035156250e+00 -6.298797607421875000e+01 2.045205593109130859e+00
-4.327265739440917969e+00 -5.020999908447265625e+01 1.124766921997070312e+01
-1.009535884857177734e+01 -5.683082962036132812e+01 1.144150257110595703e+01
-1.207311248779296875e+01 -7.350839996337890625e+01 1.885357666015625000e+01
-1.155408382415771484e+01 -6.451235198974609375e+01 1.085255718231201172e+01
-1.005494880676269531e+01 -6.804505920410156250e+01 7.793509483337402344e+00
-1.147752952575683594e+01 -7.733235931396484375e+01 1.629648590087890625e+01
-1.138017463684082031e+01 -6.086880493164062500e+01 7.583602905273437500e+00
-9.809583663940429688e+00 -6.053997802734375000e+01 1.452555274963378906e+01
1.159904003143310547e+00 -8.071351623535156250e+01 1.749836540222167969e+01
-4.136921405792236328e+00 -8.182702636718750000e+01 1.499763965606689453e+01
3.172720670700073242e+00 -7.863588714599609375e+01 2.041803550720214844e+01
-1.833797842264175415e-01 -3.605016326904296875e+01 -3.783480882644653320e+00
8.209432363510131836e-01 -7.089687347412109375e+01 2.435200119018554688e+01
3.461257219314575195e+00 -7.563738250732421875e+01 2.230760574340820312e+01
-6.045168876647949219e+00 -7.053218078613281250e+01 5.767008781433105469e+00
-8.899667739868164062e+00 -8.060102844238281250e+01 1.498751258850097656e+01
-1.039841938018798828e+01 -7.048706054687500000e+01 2.154446792602539062e+01
-4.842729091644287109e+00 -6.783793640136718750e+01 2.391814804077148438e+01
-1.065743064880371094e+01 -7.501844787597656250e+01 2.466813278198242188e+01
-5.592005729675292969e+00 -7.315842437744140625e+01 2.735142898559570312e+01
2.796183526515960693e-01 -7.606092834472656250e+01 2.770034790039062500e+01
2.627713680267333984e+00 -7.959116363525390625e+01 2.540811538696289062e+01
2.464591264724731445e+00 -8.171720886230468750e+01 2.275644683837890625e+01
-1.249719715118408203e+01 -7.796499633789062500e+01 2.217357635498046875e+01
-1.223938179016113281e+01 -8.138838195800781250e+01 1.959476089477539062e+01
-8.947288513183593750e+00 -8.322245025634765625e+01 1.683737564086914062e+01
-1.333031177520751953e+01 -8.427458190917968750e+01 2.527881240844726562e+01
-1.184733390808105469e+01 -8.282946777343750000e+01 2.887345314025878906e+01
-1.683307647705078125e+00 -9.518977355957031250e+01 3.618626785278320312e+01
-7.373355627059936523e-01 -8.952004241943359375e+01 3.444683837890625000e+01
-2.963023662567138672e+00 -8.935599517822265625e+01 3.560659027099609375e+01
-3.559176683425903320e+00 -9.466263580322265625e+01 3.760984039306640625e+01
-1.368177652359008789e+00 -8.356584930419921875e+01 3.287012481689453125e+01
-3.394423723220825195e+00 -8.501387786865234375e+01 3.400103378295898438e+01
-7.409661293029785156e+00 -8.346726226806640625e+01 3.283187866210937500e+01
-7.868777275085449219e+00 -8.918454742431640625e+01 3.531132125854492188e+01
-1.218329048156738281e+01 -8.922584533691406250e+01 3.224918746948242188e+01
-1.282985973358154297e+01 -9.452027130126953125e+01 3.478676605224609375e+01
-8.859450340270996094e+00 -9.463938140869140625e+01 3.791751480102539062e+01
-1.079807567596435547e+01 -8.498420715332031250e+01 3.151665306091308594e+01
-4.728479862213134766e+00 -9.773338317871093750e+01 3.846173095703125000e+01
-4.058815956115722656e+00 -9.960095977783203125e+01 3.749234390258789062e+01
-6.773403167724609375e+00 -8.064295959472656250e+01 3.161926269531250000e+01
1.838946938514709473e+00 -8.271543121337890625e+01 2.868929672241210938e+01
5.654660463333129883e-01 -9.070886230468750000e+01 3.241103744506835938e+01
-1.224180459976196289e+00 -9.674681091308593750e+01 3.416807174682617188e+01
-4.419406890869140625e+00 -1.012386322021484375e+02 3.530156707763671875e+01
1.699438542127609253e-01 -9.295098114013671875e+01 2.958960914611816406e+01
-1.771771192550659180e+00 -9.808554840087890625e+01 3.202754211425781250e+01
-4.866507530212402344e+00 -1.013240127563476562e+02 3.307610702514648438e+01
-2.056344509124755859e+00 -9.472456359863281250e+01 2.660386085510253906e+01
-3.966403961181640625e+00 -9.932592010498046875e+01 2.946293258666992188e+01
-2.064132243394851685e-01 -8.557502746582031250e+01 2.103478050231933594e+01
1.965661406517028809e+00 -8.423960876464843750e+01 2.463110733032226562e+01
-5.293301582336425781e+00 -1.009395980834960938e+02 3.114912033081054688e+01
-7.954797267913818359e+00 -1.021697845458984375e+02 3.747536849975585938e+01
-7.277178287506103516e+00 -1.029880371093750000e+02 3.410455322265625000e+01
-8.498205184936523438e+00 -9.899455261230468750e+01 3.870029067993164062e+01
-1.343483924865722656e+01 -8.979974365234375000e+01 3.039094161987304688e+01
-1.386576366424560547e+01 -9.591975402832031250e+01 3.288553237915039062e+01
-1.396628284454345703e+01 -9.104002380371093750e+01 2.809343910217285156e+01
-1.393139362335205078e+01 -9.772944641113281250e+01 3.110884094238281250e+01
-1.291191673278808594e+01 -1.006603622436523438e+02 3.444636154174804688e+01
-1.262897682189941406e+01 -9.959354400634765625e+01 3.596244049072265625e+01
3.968442678451538086e-01 -8.322447967529296875e+01 1.932419013977050781e+01
-4.572052001953125000e+00 -8.383491516113281250e+01 1.674299621582031250e+01
-4.805281162261962891e+00 -8.586433410644531250e+01 1.842319488525390625e+01
-6.228262901306152344e+00 -9.500032806396484375e+01 2.429487037658691406e+01
-9.373003959655761719e+00 -8.536480712890625000e+01 1.858959007263183594e+01
-1.271470165252685547e+01 -8.561092376708984375e+01 2.216997337341308594e+01
-1.322893238067626953e+01 -9.198555755615234375e+01 2.577592849731445312e+01
-1.053740978240966797e+01 -9.402194976806640625e+01 2.426469039916992188e+01
-1.331675720214843750e+01 -9.829959869384765625e+01 2.943514633178710938e+01
-1.134883117675781250e+01 -9.826914978027343750e+01 2.717221069335937500e+01
-7.270690917968750000e+00 -9.921616363525390625e+01 2.741433715820312500e+01
-1.177100658416748047e+01 -1.014812469482421875e+02 3.215748977661132812e+01
-1.239114093780517578e+01 -1.013605194091796875e+02 3.365441894531250000e+01
-7.366364955902099609e+00 -1.022785415649414062e+02 3.193093490600585938e+01
-1.081715869903564453e+01 -1.008506851196289062e+02 2.967555809020996094e+01
-7.649165153503417969e+00 -1.015605239868164062e+02 3.051027297973632812e+01
-1.459973335266113281e+01 -6.595460510253906250e+01 -2.154119014739990234e+00
-1.825709915161132812e+01 -6.817687225341796875e+01 -5.749294281005859375e+00
-1.741698837280273438e+01 -6.544069671630859375e+01 -9.032055854797363281e+00
-1.391251182556152344e+01 -6.342435836791992188e+01 -4.817486763000488281e+00
-2.033922195434570312e+01 -5.789509201049804688e+01 5.164595603942871094e+00
-1.652530860900878906e+01 -6.011039352416992188e+01 4.308696269989013672e+00
-1.565976142883300781e+01 -5.724067306518554688e+01 1.902580857276916504e+00
-1.942154884338378906e+01 -5.376024246215820312e+01 2.283170223236083984e+00
-2.533384704589843750e+01 -5.925984573364257812e+01 4.880959510803222656e+00
-2.480904769897460938e+01 -5.323018646240234375e+01 7.189941406250000000e-01
-1.872028732299804688e+01 -4.960410690307617188e+01 -1.069694280624389648e+00
-1.483798503875732422e+01 -5.403138351440429688e+01 -6.712098121643066406e-01
-1.137002372741699219e+01 -4.409166336059570312e+01 -1.228651523590087891e+01
-1.637186050415039062e+01 -3.950458526611328125e+01 -1.106547260284423828e+01
-1.445284748077392578e+01 -6.295663452148437500e+01 1.428982496261596680e+00
-1.377277088165283203e+01 -6.052462768554687500e+01 -7.959992289543151855e-01
-2.539909362792968750e+01 -6.177495574951171875e+01 -1.250917816162109375e+01
-2.143415260314941406e+01 -6.294871902465820312e+01 -1.316354370117187500e+01
-2.269853782653808594e+01 -6.549266052246093750e+01 -1.003521156311035156e+01
-2.642222213745117188e+01 -6.418553161621093750e+01 -9.054027557373046875e+00
-1.073842239379882812e+01 -5.052213668823242188e+01 -2.068720626831054688e+01
-1.568691444396972656e+01 -5.133719635009765625e+01 -2.481214523315429688e+01
-1.014604663848876953e+01 -4.851610565185546875e+01 -1.605857849121093750e+01
-2.886249732971191406e+01 -5.835100173950195312e+01 -9.740551948547363281e+00
-2.891420936584472656e+01 -5.251048660278320312e+01 -6.760238647460937500e+00
-2.701417922973632812e+01 -4.321718978881835938e+01 -1.850042152404785156e+01
-2.626027488708496094e+01 -4.706274795532226562e+01 -2.199626350402832031e+01
-1.312918376922607422e+01 -5.795412063598632812e+01 -3.070057392120361328e+00
-1.658137130737304688e+01 -6.272040939331054688e+01 -1.195465946197509766e+01
-1.323584556579589844e+01 -6.120462036132812500e+01 -7.515062808990478516e+00
-2.429714393615722656e+01 -4.883515167236328125e+01 -2.839254856109619141e+00
-2.905702209472656250e+01 -5.663619232177734375e+01 -2.660509347915649414e+00
-3.004206848144531250e+01 -7.584887695312500000e+01 8.120857238769531250e+00
-2.947964859008789062e+01 -6.409454345703125000e+01 -3.204687118530273438e+00
-2.671326637268066406e+01 -6.709265899658203125e+01 -5.811809539794921875e+00
-2.869505691528320312e+01 -7.815658569335937500e+01 5.842819213867187500e+00
-2.932573318481445312e+01 -6.153715896606445312e+01 -6.088756084442138672e+00
-2.914313125610351562e+01 -6.091160964965820312e+01 8.869320154190063477e-01
-1.726893234252929688e+01 -7.699570465087890625e+01 7.372740268707275391e+00
-2.099103164672851562e+01 -7.841801452636718750e+01 4.576106548309326172e+00
-1.648414230346679688e+01 -7.400740051269531250e+01 9.548469543457031250e+00
-2.294124221801757812e+01 -3.873300933837890625e+01 -1.370312500000000000e+01
-2.259451866149902344e+01 -5.009312820434570312e+01 -2.522393035888671875e+01
-2.011032867431640625e+01 -7.082141113281250000e+01 1.394943046569824219e+01
-1.730270385742187500e+01 -7.231416320800781250e+01 1.181485939025878906e+01
-2.319033622741699219e+01 -6.818517303466796875e+01 -6.712683200836181641e+00
-2.566708755493164062e+01 -7.902365875244140625e+01 4.382130146026611328e+00
-2.935058593750000000e+01 -7.249415588378906250e+01 1.062590122222900391e+01
-2.527945899963378906e+01 -6.980941772460937500e+01 1.333691883087158203e+01
-2.934701156616210938e+01 -7.706053161621093750e+01 1.329797935485839844e+01
-2.537300109863281250e+01 -7.432621765136718750e+01 1.600740432739257812e+01
-2.028524780273437500e+01 -7.525701904296875000e+01 1.658800888061523438e+01
-1.757256317138671875e+01 -7.654469299316406250e+01 1.431541156768798828e+01
-1.677550125122070312e+01 -7.797394561767578125e+01 1.176776409149169922e+01
-2.999074745178222656e+01 -8.026296234130859375e+01 1.090669822692871094e+01
-2.876660537719726562e+01 -8.219938659667968750e+01 8.649531364440917969e+00
-2.560526084899902344e+01 -8.100633239746093750e+01 5.795475959777832031e+00
-2.944508934020996094e+01 -8.454759216308593750e+01 1.262047386169433594e+01
-2.843244552612304688e+01 -8.378774261474609375e+01 1.681438827514648438e+01
-1.785322761535644531e+01 -9.395005798339843750e+01 2.279536819458007812e+01
-1.853043556213378906e+01 -8.869362640380859375e+01 2.098099136352539062e+01
-1.942854690551757812e+01 -8.871186828613281250e+01 2.158432960510253906e+01
-1.902708053588867188e+01 -9.401148986816406250e+01 2.361558532714843750e+01
-2.049976921081542969e+01 -8.229585266113281250e+01 1.951166725158691406e+01
-2.107109642028808594e+01 -8.415702819824218750e+01 2.042673301696777344e+01
-2.432944297790527344e+01 -8.362249755859375000e+01 1.993941116333007812e+01
-2.363540267944335938e+01 -8.972803497314453125e+01 2.227735900878906250e+01
-2.773120117187500000e+01 -9.054187011718750000e+01 1.881610679626464844e+01
-2.639957046508789062e+01 -9.521485900878906250e+01 2.072204208374023438e+01
-2.263414382934570312e+01 -9.500038146972656250e+01 2.427619361877441406e+01
-2.748466491699218750e+01 -8.531702423095703125e+01 1.825027084350585938e+01
-1.933655738830566406e+01 -9.672502136230468750e+01 2.431262588500976562e+01
-1.836426925659179688e+01 -9.713713073730468750e+01 2.359677314758300781e+01
-2.480070877075195312e+01 -8.111843109130859375e+01 1.900585365295410156e+01
-1.782474899291992188e+01 -8.138586425781250000e+01 1.681122970581054688e+01
-1.689812278747558594e+01 -8.897905731201171875e+01 1.914340019226074219e+01
-1.646637916564941406e+01 -9.419049835205078125e+01 2.091911697387695312e+01
-1.693542671203613281e+01 -9.751580810546875000e+01 2.137888145446777344e+01
-1.664894485473632812e+01 -8.977198791503906250e+01 1.634288406372070312e+01
-1.640829086303710938e+01 -9.442835998535156250e+01 1.853407859802246094e+01
-1.719334983825683594e+01 -9.735565185546875000e+01 1.944214820861816406e+01
-1.781339836120605469e+01 -9.055734252929687500e+01 1.398863029479980469e+01
-1.758620643615722656e+01 -9.467326354980468750e+01 1.611055183410644531e+01
-1.772757720947265625e+01 -8.142494964599609375e+01 9.942639350891113281e+00
-1.694174194335937500e+01 -8.118906402587890625e+01 1.340768146514892578e+01
-1.797481727600097656e+01 -9.701673889160156250e+01 1.770139312744140625e+01
-2.061651229858398438e+01 -9.924406433105468750e+01 2.400205421447753906e+01
-1.940928649902343750e+01 -1.000827789306640625e+02 2.056038284301757812e+01
-2.141927337646484375e+01 -9.799987792968750000e+01 2.458105087280273438e+01
-2.842302513122558594e+01 -9.041886901855468750e+01 1.703105735778808594e+01
-2.653075027465820312e+01 -9.667553710937500000e+01 1.884335708618164062e+01
-2.805433273315429688e+01 -9.082672882080078125e+01 1.448235130310058594e+01
-2.599635887145996094e+01 -9.694909667968750000e+01 1.654403877258300781e+01
-2.422598266601562500e+01 -9.991582489013671875e+01 2.113758087158203125e+01
-2.444475936889648438e+01 -9.914152526855468750e+01 2.190929222106933594e+01
-1.761045837402343750e+01 -7.910599517822265625e+01 8.420383453369140625e+00
-2.126659774780273438e+01 -8.041234588623046875e+01 6.056855201721191406e+00
-2.106339645385742188e+01 -8.262699890136718750e+01 7.610673427581787109e+00
-2.057802772521972656e+01 -9.191191864013671875e+01 1.202938270568847656e+01
-2.525856399536132812e+01 -8.331970214843750000e+01 7.248250007629394531e+00
-2.810394668579101562e+01 -8.604489135742187500e+01 1.033464431762695312e+01
-2.650190353393554688e+01 -9.159018707275390625e+01 1.244030952453613281e+01
-2.384850692749023438e+01 -9.235578155517578125e+01 1.163643074035644531e+01
-2.469524765014648438e+01 -9.665073394775390625e+01 1.492298698425292969e+01
-2.316847801208496094e+01 -9.592848205566406250e+01 1.363028526306152344e+01
-1.981226921081542969e+01 -9.561814880371093750e+01 1.414315986633300781e+01
-2.269283485412597656e+01 -9.925249481201171875e+01 1.691709709167480469e+01
-2.352851867675781250e+01 -9.992454528808593750e+01 1.897539138793945312e+01
-1.973427772521972656e+01 -9.937651062011718750e+01 1.873652839660644531e+01
-2.182691955566406250e+01 -9.796290588378906250e+01 1.559981346130371094e+01
-1.968820190429687500e+01 -9.811553955078125000e+01 1.674363136291503906e+01
-1.956525039672851562e+01 -5.067028808593750000e+01 -2.615754318237304688e+01
-3.752577209472656250e+01 -6.384766387939453125e+01 -1.797650527954101562e+01
-3.910614395141601562e+01 -6.628536987304687500e+01 -2.078566360473632812e+01
-3.921606445312500000e+01 -6.436669921875000000e+01 -2.359077644348144531e+01
-3.691450119018554688e+01 -6.191475296020507812e+01 -2.132192993164062500e+01
-4.463676071166992188e+01 -5.660654830932617188e+01 -1.375844287872314453e+01
-4.062838745117187500e+01 -5.895483398437500000e+01 -1.359231090545654297e+01
-3.958921051025390625e+01 -5.551592254638671875e+01 -1.615005874633789062e+01
-4.345551300048828125e+01 -5.274203491210937500e+01 -1.642681884765625000e+01
-4.904030609130859375e+01 -5.724866867065429688e+01 -1.596301555633544922e+01
-4.844926071166992188e+01 -5.333374786376953125e+01 -1.882001113891601562e+01
-4.259742355346679688e+01 -5.019869613647460938e+01 -1.843909835815429688e+01
-3.829240798950195312e+01 -5.304422760009765625e+01 -1.844474601745605469e+01
-3.245916748046875000e+01 -4.233216094970703125e+01 -2.909316062927246094e+01
-3.564236450195312500e+01 -3.883059692382812500e+01 -3.120952415466308594e+01
-4.002471160888671875e+01 -4.849620437622070312e+01 -4.724729537963867188e+01
-3.522515106201171875e+01 -5.162452316284179688e+01 -4.680232620239257812e+01
-3.828602981567382812e+01 -5.442548370361328125e+01 -3.976079559326171875e+01
-4.166700744628906250e+01 -5.206966018676757812e+01 -4.083984756469726562e+01
-3.809221649169921875e+01 -6.135961914062500000e+01 -1.536512565612792969e+01
-3.686245727539062500e+01 -5.916296386718750000e+01 -1.834649276733398438e+01
-4.666726684570312500e+01 -6.093320465087890625e+01 -2.974261093139648438e+01
-4.295613479614257812e+01 -6.256854248046875000e+01 -2.891394424438476562e+01
-4.247446060180664062e+01 -6.530703735351562500e+01 -2.565716934204101562e+01
-4.649160003662109375e+01 -6.485278320312500000e+01 -2.643361473083496094e+01
-3.106766319274902344e+01 -5.342822265625000000e+01 -4.294968414306640625e+01
-2.756172180175781250e+01 -5.340166473388671875e+01 -3.974422836303710938e+01
-3.025975608825683594e+01 -5.383460617065429688e+01 -3.594908523559570312e+01
-3.485593795776367188e+01 -5.529570388793945312e+01 -3.739577102661132812e+01
-2.930701828002929688e+01 -5.095453643798828125e+01 -3.159603500366210938e+01
-4.929594421386718750e+01 -5.852674102783203125e+01 -2.880988502502441406e+01
-5.031058502197265625e+01 -5.394126129150390625e+01 -2.565268516540527344e+01
-4.424600982666015625e+01 -4.333754730224609375e+01 -4.006638336181640625e+01
-4.374663162231445312e+01 -4.758090209960937500e+01 -4.192681884765625000e+01
-3.613610076904296875e+01 -5.714748001098632812e+01 -2.030006027221679688e+01
-3.942867660522460938e+01 -6.255609130859375000e+01 -2.667419815063476562e+01
-3.666272735595703125e+01 -6.068986892700195312e+01 -2.388848304748535156e+01
-4.778588867187500000e+01 -5.055762100219726562e+01 -2.122999191284179688e+01
-5.120490264892578125e+01 -5.741765213012695312e+01 -2.269831085205078125e+01
-4.999367523193359375e+01 -7.229360198974609375e+01 -1.759252548217773438e+01
-5.001509475708007812e+01 -6.519983673095703125e+01 -2.325591087341308594e+01
-4.631149291992187500e+01 -6.764809417724609375e+01 -2.385099220275878906e+01
-4.780122375488281250e+01 -7.349459075927734375e+01 -1.846915817260742188e+01
-4.985734176635742188e+01 -6.202557373046875000e+01 -2.586301040649414062e+01
-5.153047943115234375e+01 -6.112422943115234375e+01 -1.978369522094726562e+01
-3.821144485473632812e+01 -7.024308776855468750e+01 -1.299501037597656250e+01
-4.066571044921875000e+01 -7.245329284667968750e+01 -1.689444160461425781e+01
-3.866489410400390625e+01 -6.839327239990234375e+01 -1.049655437469482422e+01
-4.090827178955078125e+01 -3.862924194335937500e+01 -3.499682998657226562e+01
-4.514554595947265625e+01 -6.564662933349609375e+01 -7.772754669189453125e+00
-4.091217422485351562e+01 -6.713590240478515625e+01 -8.169086456298828125e+00
-4.221179199218750000e+01 -6.775018310546875000e+01 -2.278376770019531250e+01
-4.443402862548828125e+01 -7.356718444824218750e+01 -1.853964996337890625e+01
-5.139925003051757812e+01 -6.972430419921875000e+01 -1.492845630645751953e+01
-4.987055587768554688e+01 -6.619142150878906250e+01 -1.063390922546386719e+01
-5.073137664794921875e+01 -7.365898132324218750e+01 -1.167069053649902344e+01
-4.880858612060546875e+01 -7.003079986572265625e+01 -7.813650608062744141e+00
-4.335745620727539062e+01 -6.978569030761718750e+01 -5.735208034515380859e+00
-3.991761398315429688e+01 -6.991113281250000000e+01 -7.170126914978027344e+00
-3.804124450683593750e+01 -7.085197448730468750e+01 -9.559970855712890625e+00
-4.951383209228515625e+01 -7.573692321777343750e+01 -1.496411418914794922e+01
-4.739519500732421875e+01 -7.638092041015625000e+01 -1.650149154663085938e+01
-4.412097930908203125e+01 -7.561573028564453125e+01 -1.723891639709472656e+01
-4.840193939208984375e+01 -7.953572082519531250e+01 -1.229911899566650391e+01
-4.824385833740234375e+01 -7.894123077392578125e+01 -7.915849208831787109e+00
-3.514191436767578125e+01 -8.341302490234375000e+01 -3.763618469238281250e+00
-3.677835845947265625e+01 -7.959410858154296875e+01 -4.340755462646484375e+00
-3.777602005004882812e+01 -7.987718963623046875e+01 -3.699014663696289062e+00
-3.578176879882812500e+01 -8.364381408691406250e+01 -3.087716579437255859e+00
-4.037201690673828125e+01 -7.511422729492187500e+01 -4.544038772583007812e+00
-4.086656951904296875e+01 -7.660166931152343750e+01 -4.057432651519775391e+00
-4.477265930175781250e+01 -7.659108734130859375e+01 -4.647073268890380859e+00
-4.158185577392578125e+01 -8.152735900878906250e+01 -3.256098985671997070e+00
-4.482555389404296875e+01 -8.444963073730468750e+01 -6.349591255187988281e+00
-4.218639373779296875e+01 -8.760836029052734375e+01 -5.171328544616699219e+00
-3.948057174682617188e+01 -8.491922760009765625e+01 -2.282387018203735352e+00
-4.672474288940429688e+01 -7.979705810546875000e+01 -6.301394462585449219e+00
-3.559223556518554688e+01 -8.624836730957031250e+01 -2.328092336654663086e+00
-3.492742156982421875e+01 -8.708672332763671875e+01 -2.714118957519531250e+00
-4.580235671997070312e+01 -7.473203277587890625e+01 -5.157421112060546875e+00
-3.770491409301757812e+01 -7.379585266113281250e+01 -6.818739414215087891e+00
-3.496411895751953125e+01 -8.000456237792968750e+01 -6.176310539245605469e+00
-3.397823333740234375e+01 -8.474327087402343750e+01 -4.967298984527587891e+00
-3.432141113281250000e+01 -8.833353424072265625e+01 -3.896799564361572266e+00
-3.462891769409179688e+01 -7.952480316162109375e+01 -8.662557601928710938e+00
-3.374982452392578125e+01 -8.483161163330078125e+01 -6.885453701019287109e+00
-3.425636672973632812e+01 -8.802822875976562500e+01 -5.915801525115966797e+00
-3.561481094360351562e+01 -7.993309783935546875e+01 -1.154710292816162109e+01
-3.441883087158203125e+01 -8.480046081542968750e+01 -9.291446685791015625e+00
-3.762790679931640625e+01 -7.461612701416015625e+01 -1.300385856628417969e+01
-3.679793548583984375e+01 -7.384419250488281250e+01 -9.688524246215820312e+00
-3.453594207763671875e+01 -8.738313293457031250e+01 -7.725321769714355469e+00
-3.723480987548828125e+01 -8.925404357910156250e+01 -2.759397983551025391e+00
-3.623629760742187500e+01 -9.005867004394531250e+01 -5.148424625396728516e+00
-3.804022598266601562e+01 -8.815010833740234375e+01 -2.239873409271240234e+00
-4.529850006103515625e+01 -8.460411834716796875e+01 -7.669104099273681641e+00
-4.203958892822265625e+01 -8.845225524902343750e+01 -6.508021354675292969e+00
-4.491499710083007812e+01 -8.477748107910156250e+01 -1.006249618530273438e+01
-4.121892547607421875e+01 -8.877796936035156250e+01 -8.172048568725585938e+00
-3.961659622192382812e+01 -9.002245330810546875e+01 -5.092061042785644531e+00
-4.019776916503906250e+01 -8.865647125244140625e+01 -3.817178010940551758e+00
-3.793000411987304688e+01 -7.274415588378906250e+01 -1.294099140167236328e+01
-4.034606170654296875e+01 -7.408676147460937500e+01 -1.591547203063964844e+01
-4.029734420776367188e+01 -7.607981109619140625e+01 -1.554003429412841797e+01
-3.807997894287109375e+01 -8.126701354980468750e+01 -1.365467834472656250e+01
-4.394831085205078125e+01 -7.769319152832031250e+01 -1.625573158264160156e+01
-4.683195114135742188e+01 -7.891990661621093750e+01 -1.490336608886718750e+01
-4.346900558471679688e+01 -8.443112182617187500e+01 -1.218042278289794922e+01
-4.115016555786132812e+01 -8.334983825683593750e+01 -1.364461708068847656e+01
-4.002826690673828125e+01 -8.849235534667968750e+01 -9.470130920410156250e+00
-3.848409652709960938e+01 -8.717716979980468750e+01 -1.097182273864746094e+01
-3.625553512573242188e+01 -8.559709167480468750e+01 -1.099930858612060547e+01
-3.755947875976562500e+01 -8.993370056152343750e+01 -7.643908500671386719e+00
-3.827554321289062500e+01 -9.051248931884765625e+01 -6.644219875335693359e+00
-3.577021789550781250e+01 -8.929581451416015625e+01 -6.634364128112792969e+00
-3.691616058349609375e+01 -8.864252471923828125e+01 -8.733771324157714844e+00
-3.570396423339843750e+01 -8.800008392333984375e+01 -8.463313102722167969e+00
-4.245789337158203125e+01 -4.627868652343750000e+01 -4.514647674560546875e+01
5.728575897216796875e+01 -5.846097564697265625e+01 -3.946301269531250000e+01
5.250081253051757812e+01 -5.836030197143554688e+01 -3.766133499145507812e+01
4.550611114501953125e+01 -7.343089294433593750e+01 -4.418978118896484375e+01
4.268596267700195312e+01 -6.733752441406250000e+01 -3.844474029541015625e+01
5.106627273559570312e+01 -7.559195709228515625e+01 -4.747940444946289062e+01
6.029390716552734375e+01 -7.052465057373046875e+01 -4.869797134399414062e+01
5.613303375244140625e+01 -7.369327545166015625e+01 -4.958253479003906250e+01
4.686568450927734375e+01 -6.120715332031250000e+01 -3.590330123901367188e+01
6.122398757934570312e+01 -6.047379684448242188e+01 -4.276471710205078125e+01
6.265299224853515625e+01 -6.513036346435546875e+01 -4.671449661254882812e+01
6.097498703002929688e+01 -6.493422698974609375e+01 -3.599512481689453125e+01
6.256282806396484375e+01 -6.945503234863281250e+01 -3.988228988647460938e+01
6.055246734619140625e+01 -7.495733642578125000e+01 -4.190830612182617188e+01
5.590468215942382812e+01 -7.806931304931640625e+01 -4.388219451904296875e+01
5.142679595947265625e+01 -7.900572204589843750e+01 -4.327806854248046875e+01
5.644697189331054688e+01 -6.272682952880859375e+01 -3.338473129272460938e+01
5.146780395507812500e+01 -6.271823120117187500e+01 -3.209753036499023438e+01
4.513663864135742188e+01 -6.547640228271484375e+01 -3.239244842529296875e+01
5.475248336791992188e+01 -6.756721496582031250e+01 -2.652949523925781250e+01
5.965174484252929688e+01 -7.546058654785156250e+01 -2.198807144165039062e+01
6.215818023681640625e+01 -9.438792419433593750e+01 -2.220819473266601562e+01
6.076202392578125000e+01 -9.060440826416015625e+01 -2.756624221801757812e+01
6.287379837036132812e+01 -8.926535797119140625e+01 -2.560945510864257812e+01
6.439219665527343750e+01 -9.318444061279296875e+01 -2.132190704345703125e+01
6.120480346679687500e+01 -8.607141876220703125e+01 -2.982329750061035156e+01
