2.772238159179687500e+01 -2.512205886840820312e+01 -3.136721229553222656e+01
-4.229486942291259766e+00 -4.434110260009765625e+01 -4.365041732788085938e+01
-6.812596797943115234e+00 -4.515890502929687500e+01 -3.361344528198242188e+01
-1.142492103576660156e+01 -4.380015945434570312e+01 -3.481926345825195312e+01
1.539741516113281250e+01 -5.155375289916992188e+01 -2.609033203125000000e+01
1.715304946899414062e+01 -5.107815551757812500e+01 -1.812015914916992188e+01
1.258092689514160156e+01 -5.045939636230468750e+01 -2.082566833496093750e+01
1.077333831787109375e+01 -4.997137832641601562e+01 -2.852871322631835938e+01
-2.946871376037597656e+01 -2.598398971557617188e+01 -7.288728332519531250e+01
-3.188365745544433594e+01 -3.561349105834960938e+01 -7.530207824707031250e+01
3.703932189941406250e+01 -5.532288742065429688e+01 1.373455333709716797e+01
3.709918975830078125e+01 -5.328415679931640625e+01 1.047249412536621094e+01
-1.851040244102478027e+00 -4.396714019775390625e+01 -5.505503082275390625e+01
2.888544273376464844e+01 -2.262476539611816406e+01 -4.457316207885742188e+01
-5.774669647216796875e-01 -4.502142333984375000e+01 -6.642047119140625000e+01
-2.383521080017089844e+01 -2.521724510192871094e+01 -3.077538108825683594e+01
-2.770302200317382812e+01 -2.967630004882812500e+01 -2.890286254882812500e+01
-2.727610397338867188e+01 -3.155482864379882812e+01 -2.565708351135253906e+01
-2.501267433166503906e+01 -2.663865661621093750e+01 -2.418952941894531250e+01
1.958794021606445312e+01 -5.188365554809570312e+01 7.256197929382324219e+00
2.264685821533203125e+01 -5.540676116943359375e+01 5.655470848083496094e+00
2.321589469909667969e+01 -5.666167449951171875e+01 9.585744857788085938e+00
2.000699996948242188e+01 -5.306354522705078125e+01 1.172098445892333984e+01
2.769712448120117188e+01 -5.189496994018554688e+01 -1.636087608337402344e+01
3.314631652832031250e+01 -5.023082351684570312e+01 -1.791745567321777344e+01
3.255077362060546875e+01 -5.117798614501953125e+01 -1.124441337585449219e+01
2.732407760620117188e+01 -5.218546295166015625e+01 -1.087401485443115234e+01
3.671926498413085938e+01 -4.627069854736328125e+01 -1.544805431365966797e+01
3.650862884521484375e+01 -4.749598312377929688e+01 -9.867770195007324219e+00
1.952075576782226562e+01 -4.658438110351562500e+01 9.636957168579101562e+00
2.368578338623046875e+01 -4.129860305786132812e+01 1.175600147247314453e+01
2.164756393432617188e+01 -3.758152389526367188e+01 -2.690188884735107422e+00
1.865930747985839844e+01 -4.413048553466796875e+01 -2.632890939712524414e+00
-4.685984611511230469e+00 -1.219321918487548828e+01 -7.268634033203125000e+01
-1.408039283752441406e+01 -1.456211090087890625e+01 -7.632758331298828125e+01
-1.778325653076171875e+01 -1.772432327270507812e+01 -6.281635284423828125e+01
-2.146012878417968750e+01 -2.008749771118164062e+01 -5.018257904052734375e+01
-2.420766639709472656e+01 -2.350838851928710938e+01 -3.811402130126953125e+01
-1.426824951171875000e+01 -2.067795753479003906e+01 -3.471239852905273438e+01
-2.382258224487304688e+01 -2.011265754699707031e+01 -6.676851654052734375e+01
1.644964027404785156e+01 -3.883698654174804688e+01 -1.094947242736816406e+01
2.061802291870117188e+01 -3.364024734497070312e+01 -1.248597240447998047e+01
1.653165817260742188e+01 -3.182938194274902344e+01 -1.418367004394531250e+01
-7.091078281402587891e+00 -4.592816162109375000e+01 -6.812906646728515625e+01
3.716567230224609375e+01 -5.135926437377929688e+01 6.599879264831542969e+00
2.961999511718750000e+01 -8.424962043762207031e+00 -9.548753356933593750e+01
1.871654510498046875e+01 -3.232332706451416016e+00 -9.516911315917968750e+01
1.958650970458984375e+01 -6.833293914794921875e+00 -8.821679687500000000e+01
3.111547470092773438e+01 -1.231425666809082031e+01 -8.862983703613281250e+01
2.834164428710937500e+01 -5.681496429443359375e+01 4.262914657592773438e+00
3.394658660888671875e+01 -5.550416183471679688e+01 4.612329483032226562e+00
-2.416688728332519531e+01 -4.197037887573242188e+01 -3.090449905395507812e+01
-2.333128738403320312e+01 -4.007523345947265625e+01 -2.494202613830566406e+01
-2.585107040405273438e+01 -3.825700759887695312e+01 -2.434390068054199219e+01
-2.775518798828125000e+01 -4.297940826416015625e+01 -2.874524307250976562e+01
-1.827215194702148438e+01 -1.638420677185058594e+01 -7.971978759765625000e+01
-4.004045867919921875e+01 -3.352601242065429688e+01 -4.336106491088867188e+01
-3.427683639526367188e+01 -2.671826744079589844e+01 -4.013584136962890625e+01
-1.059745979309082031e+01 -1.046970272064208984e+01 -8.824999237060546875e+01
-2.190983295440673828e+00 -8.281723022460937500e+00 -8.484034729003906250e+01
-1.032233595848083496e+00 -4.384089469909667969e+00 -9.334388732910156250e+01
-2.380796909332275391e+00 -2.359417724609375000e+01 -2.318449783325195312e+01
2.215995311737060547e+00 -1.194148826599121094e+01 -6.797621154785156250e+01
4.423762321472167969e+00 -8.269667625427246094e+00 -8.137884521484375000e+01
6.224252223968505859e+00 -3.932198286056518555e+00 -9.142974090576171875e+01
6.592123985290527344e+00 -3.140712380409240723e-01 -9.830879974365234375e+01
-1.512733221054077148e+00 -1.193328619003295898e+00 -9.982243347167968750e+01
2.908353233337402344e+01 -4.071878814697265625e+01 1.245278644561767578e+01
2.410864067077636719e+01 -4.366994094848632812e+01 1.691175842285156250e+01
-1.952925443649291992e+00 1.031343817710876465e+00 -1.073200912475585938e+02
6.738195896148681641e+00 2.278293371200561523e+00 -1.050416488647460938e+02
1.238621997833251953e+01 -9.307253837585449219e+00 -7.819931030273437500e+01
2.147228431701660156e+01 -1.204839897155761719e+01 -7.527042388916015625e+01
1.031475067138671875e+01 -1.284996604919433594e+01 -6.535270690917968750e+01
1.938436508178710938e+01 -1.533782196044921875e+01 -6.136180496215820312e+01
7.231727600097656250e+00 -2.314624404907226562e+01 -2.496056938171386719e+01
2.225081253051757812e+01 -5.599839019775390625e+01 2.688295364379882812e+01
2.088244056701660156e+01 -5.039400100708007812e+01 1.897162055969238281e+01
2.042873764038085938e+01 -5.488397979736328125e+01 1.599301338195800781e+01
2.094555854797363281e+01 -5.904416656494140625e+01 2.480866050720214844e+01
2.013235092163085938e+01 -4.807332611083984375e+01 1.444972038269042969e+01
2.459575462341308594e+01 -4.650821685791015625e+01 2.063445472717285156e+01
3.069609451293945312e+01 -2.000550842285156250e+01 -5.910667800903320312e+01
1.370787525177001953e+01 -4.823375701904296875e+01 -1.386131000518798828e+01
3.420618820190429688e+01 -1.828894233703613281e+01 -7.463024139404296875e+01
4.195059967041015625e+01 -2.850017166137695312e+01 -5.288600540161132812e+01
4.515463638305664062e+01 -2.869743919372558594e+01 -6.527362823486328125e+01
3.896953582763671875e+01 -1.962498474121093750e+01 -9.058151245117187500e+01
4.543863677978515625e+01 -2.791462326049804688e+01 -8.046872711181640625e+01
3.665124130249023438e+01 -1.351266288757324219e+01 -1.035331878662109375e+02
3.706612014770507812e+01 -1.592155742645263672e+01 -9.677625274658203125e+01
5.293758392333984375e+01 -3.845474624633789062e+01 -7.107923126220703125e+01
3.175600624084472656e+01 -6.346389007568359375e+01 1.960580825805664062e+01
2.634673500061035156e+01 -6.371505737304687500e+01 1.935236740112304688e+01
2.950347518920898438e+01 -5.582622528076171875e+00 -1.019280471801757812e+02
3.630460357666015625e+01 -6.766571044921875000e+01 -6.623631286621093750e+01
-3.216777801513671875e+00 -4.713309478759765625e+01 -7.854607391357421875e+01
1.355194091796875000e+00 -4.640432739257812500e+01 -7.665163421630859375e+01
-1.961145782470703125e+01 -4.498488998413085938e+01 -8.632841491699218750e+01
-9.396320343017578125e+00 -4.818771362304687500e+01 -8.196302795410156250e+01
3.570986938476562500e+01 -6.128705978393554688e+01 2.120068740844726562e+01
-4.290991306304931641e+00 -4.094095993041992188e+01 -1.075976848602294922e+01
-9.229864120483398438e+00 -3.882590866088867188e+01 -1.290291786193847656e+01
5.275769042968750000e+01 -6.875413513183593750e+01 -7.028507232666015625e+01
5.570670700073242188e+01 -7.127199554443359375e+01 -6.358169555664062500e+01
6.238596725463867188e+01 -6.068328857421875000e+01 -6.037360763549804688e+01
6.078933715820312500e+01 -6.655764007568359375e+01 -6.292609405517578125e+01
5.825868606567382812e+01 -6.250651931762695312e+01 -7.053719329833984375e+01
6.017652130126953125e+01 -5.572600555419921875e+01 -6.793325042724609375e+01
4.234916687011718750e+00 -4.760579299926757812e+01 -8.720039367675781250e+01
7.918978929519653320e-01 -4.738740539550781250e+01 -8.781966400146484375e+01
-2.556913948059082031e+01 -2.474366378784179688e+01 -8.478511047363281250e+01
-2.708897399902343750e+01 -3.528249359130859375e+01 -8.643051910400390625e+01
3.691693115234375000e+01 -4.047963714599609375e+01 -1.322698688507080078e+01
3.391536331176757812e+01 -3.260741806030273438e+01 -1.887176704406738281e+01
3.333811187744140625e+01 -3.471847152709960938e+01 -1.133338451385498047e+01
2.772573471069335938e+01 -3.477832794189453125e+01 -4.102069377899169922e+00
1.509833335876464844e+01 -4.426074981689453125e+01 -1.035325908660888672e+01
1.807542991638183594e+01 -4.274153518676757812e+01 -9.281135559082031250e+00
1.920259857177734375e+01 -5.338004684448242188e+01 -9.391258239746093750e+01
1.408786201477050781e+01 -5.268983078002929688e+01 -8.281800842285156250e+01
3.978580856323242188e+01 -6.556089782714843750e+01 -5.414472579956054688e+01
4.352622604370117188e+01 -6.349372100830078125e+01 -4.887167739868164062e+01
4.014330863952636719e+00 -4.779217529296875000e+01 -3.222531890869140625e+01
5.997297763824462891e-01 -2.746767234802246094e+01 -1.353551483154296875e+01
7.975130558013916016e+00 -2.592238807678222656e+01 -1.480655956268310547e+01
4.555033683776855469e+00 -4.854746246337890625e+01 -2.253259658813476562e+01
3.535733795166015625e+01 -5.590552902221679688e+01 2.621513366699218750e+01
3.671492767333984375e+01 -5.906621170043945312e+01 2.346837997436523438e+01
2.737793540954589844e+01 -3.186151504516601562e+01 -1.160540485382080078e+01
-1.821284866333007812e+01 -4.394066619873046875e+01 -3.803915786743164062e+01
-6.878508567810058594e+00 -2.472649574279785156e+01 -1.974785041809082031e+01
1.546260118484497070e-01 -3.424462127685546875e+01 -1.089969635009765625e+01
-3.840360641479492188e+01 -4.107729339599609375e+01 -4.666468429565429688e+01
1.894879150390625000e+01 -2.485545575618743896e-01 -1.023501434326171875e+02
2.316324615478515625e+01 -5.852780151367187500e+01 1.398489952087402344e+01
2.244119834899902344e+01 -6.225597381591796875e+01 2.066071128845214844e+01
2.531387710571289062e+01 -5.346325683593750000e+01 2.779326248168945312e+01
3.080325889587402344e+01 -5.260725021362304688e+01 2.757844543457031250e+01
-2.166269874572753906e+01 -3.512356948852539062e+01 -9.633097839355468750e+01
4.169788837432861328e+00 -4.643292999267578125e+01 -7.501180267333984375e+01
5.748278808593750000e+01 -4.682753372192382812e+01 -6.485774993896484375e+01
6.065647125244140625e+01 -5.498917770385742188e+01 -5.739256668090820312e+01
4.902732372283935547e+00 -4.760858917236328125e+01 -1.569818687438964844e+01
-2.866331481933593750e+01 -2.707100296020507812e+01 -3.433504104614257812e+01
-1.683537673950195312e+01 -2.202947998046875000e+01 -2.689005470275878906e+01
-1.902149009704589844e+01 -2.262713432312011719e+01 -2.047896766662597656e+01
-1.321518707275390625e+01 -2.433416366577148438e+01 -1.593363380432128906e+01
-1.106894588470458984e+01 -3.024415206909179688e+01 -1.167824077606201172e+01
2.519907569885253906e+01 -5.700168609619140625e+01 3.105886840820312500e+01
3.063985061645507812e+01 -5.612788009643554688e+01 3.099854660034179688e+01
3.509384536743164062e+01 -5.938549804687500000e+01 2.984458923339843750e+01
3.635744094848632812e+01 -6.208028411865234375e+01 2.721381187438964844e+01
3.514961624145507812e+01 -6.383218383789062500e+01 2.382767868041992188e+01
2.219893455505371094e+01 -5.952112960815429688e+01 3.020899963378906250e+01
2.100814056396484375e+01 -6.225033569335937500e+01 2.826901817321777344e+01
2.224552917480468750e+01 -6.425865173339843750e+01 2.346735763549804688e+01
2.179044532775878906e+01 -6.327751541137695312e+01 3.308222579956054688e+01
2.525762176513671875e+01 -6.329103469848632812e+01 3.636850738525390625e+01
3.440328598022460938e+01 -7.156472015380859375e+01 3.693394088745117188e+01
3.450924682617187500e+01 -6.607679748535156250e+01 3.536496734619140625e+01
3.319432067871093750e+01 -6.730024719238281250e+01 3.731003952026367188e+01
3.274384689331054688e+01 -7.169291687011718750e+01 3.958833312988281250e+01
3.121250915527343750e+01 -7.506861877441406250e+01 4.207660293579101562e+01
3.268518066406250000e+01 -7.547423553466796875e+01 3.972563934326171875e+01
3.037719726562500000e+01 -6.412158966064453125e+01 3.714373016357421875e+01
2.946016311645507812e+01 -6.972486114501953125e+01 4.046031951904296875e+01
2.542557334899902344e+01 -6.929896545410156250e+01 4.011697769165039062e+01
2.510727310180664062e+01 -7.333122253417968750e+01 4.260536193847656250e+01
2.833827209472656250e+01 -7.366025543212890625e+01 4.304698181152343750e+01
2.649392700195312500e+01 -6.546753692626953125e+01 3.803276443481445312e+01
3.047043991088867188e+01 -6.214918136596679688e+01 3.591771316528320312e+01
3.038191223144531250e+01 -7.763098144531250000e+01 4.191020584106445312e+01
2.989709854125976562e+01 -7.632003021240234375e+01 4.307904815673828125e+01
2.745547866821289062e+01 -7.556214904785156250e+01 4.374800872802734375e+01
2.656586265563964844e+01 -7.776865386962890625e+01 4.360410308837890625e+01
3.608039093017578125e+01 -6.596102142333984375e+01 3.021549034118652344e+01
3.450343704223632812e+01 -7.252643585205078125e+01 3.495457077026367188e+01
3.223940277099609375e+01 -7.666729736328125000e+01 3.773331451416015625e+01
2.976357460021972656e+01 -7.851246643066406250e+01 4.027451324462890625e+01
3.250156402587890625e+01 -7.446367645263671875e+01 3.311371994018554688e+01
3.065761947631835938e+01 -7.734104919433593750e+01 3.602431488037109375e+01
2.833830261230468750e+01 -7.859205627441406250e+01 3.815973663330078125e+01
2.904729652404785156e+01 -7.540208435058593750e+01 3.196142196655273438e+01
2.796095657348632812e+01 -7.758222961425781250e+01 3.496205520629882812e+01
3.153470802307128906e+01 -6.710268402099609375e+01 2.426774787902832031e+01
3.482191467285156250e+01 -6.597212982177734375e+01 2.595389366149902344e+01
2.726342201232910156e+01 -7.839414978027343750e+01 3.687047576904296875e+01
2.546568679809570312e+01 -7.803876495361328125e+01 4.162390899658203125e+01
2.262005233764648438e+01 -6.836681365966796875e+01 3.800793457031250000e+01
2.259485435485839844e+01 -7.377400207519531250e+01 4.122919464111328125e+01
2.109991836547851562e+01 -6.901445770263671875e+01 3.640062713623046875e+01
2.145930480957031250e+01 -7.432569122314453125e+01 3.965221023559570312e+01
2.349589157104492188e+01 -7.627938842773437500e+01 4.273322677612304688e+01
2.499185371398925781e+01 -7.526948547363281250e+01 4.340464019775390625e+01
3.127346229553222656e+01 -6.487674713134765625e+01 2.142446327209472656e+01
2.554330444335937500e+01 -6.507580566406250000e+01 2.140174484252929688e+01
2.578757858276367188e+01 -6.716476440429687500e+01 2.373085594177246094e+01
2.482090568542480469e+01 -7.492977905273437500e+01 3.164682006835937500e+01
2.223829460144042969e+01 -6.663975524902343750e+01 2.575384521484375000e+01
2.059619140625000000e+01 -6.584655761718750000e+01 3.082521438598632812e+01
2.037108421325683594e+01 -7.104953765869140625e+01 3.485336303710937500e+01
2.125519943237304688e+01 -7.299907684326171875e+01 3.289255905151367188e+01
2.111368179321289062e+01 -7.496571350097656250e+01 3.758189773559570312e+01
2.206068992614746094e+01 -7.586991119384765625e+01 3.585761642456054688e+01
2.478813552856445312e+01 -7.714079284667968750e+01 3.490934753417968750e+01
2.270329093933105469e+01 -7.724009704589843750e+01 3.942537307739257812e+01
2.273572731018066406e+01 -7.677241516113281250e+01 4.155949783325195312e+01
2.537001419067382812e+01 -7.848559570312500000e+01 3.948842620849609375e+01
2.302578353881835938e+01 -7.729744720458984375e+01 3.777262115478515625e+01
2.524767494201660156e+01 -7.830625915527343750e+01 3.757656097412109375e+01
8.645578384399414062e+00 -4.938272476196289062e+01 2.033026695251464844e+01
2.922857284545898438e+00 -4.966038131713867188e+01 2.085837745666503906e+01
3.582289218902587891e+00 -4.847559356689453125e+01 1.630209922790527344e+01
8.696597099304199219e+00 -4.819821548461914062e+01 1.640660285949707031e+01
1.197632884979248047e+01 -3.878667449951171875e+01 2.414224624633789062e+01
1.321929359436035156e+01 -4.334490966796875000e+01 2.250288772583007812e+01
1.350434303283691406e+01 -4.121913146972656250e+01 1.924838256835937500e+01
1.175772571563720703e+01 -3.609448242187500000e+01 2.040142631530761719e+01
7.738754272460937500e+00 -3.573825836181640625e+01 2.497626304626464844e+01
7.130883216857910156e+00 -3.317456817626953125e+01 2.033649826049804688e+01
1.211442661285400391e+01 -3.452082443237304688e+01 1.596440601348876953e+01
1.382395458221435547e+01 -3.991978836059570312e+01 1.484108257293701172e+01
1.478608417510986328e+01 -3.818548583984375000e+01 -5.355081081390380859e+00
1.366502571105957031e+01 -3.165884971618652344e+01 -4.485424041748046875e+00
2.125079929828643799e-01 -4.442864990234375000e+01 -7.594946384429931641e+00
-1.363662123680114746e+00 -4.208964157104492188e+01 -5.773771762847900391e+00
1.167524719238281250e+01 -4.718211364746093750e+01 2.111812973022460938e+01
1.215654945373535156e+01 -4.535533905029296875e+01 1.776506423950195312e+01
-2.512808799743652344e+00 -4.339331817626953125e+01 1.360394573211669922e+01
3.681030571460723877e-01 -4.678413772583007812e+01 1.257559204101562500e+01
-4.467030465602874756e-01 -4.673165512084960938e+01 1.725361251831054688e+01
-2.915229797363281250e+00 -4.274538421630859375e+01 1.857871818542480469e+01
1.064735031127929688e+01 -4.507670211791992188e+01 -8.134157180786132812e+00
5.174460411071777344e+00 -4.602793121337890625e+01 -8.581899642944335938e+00
1.304723834991455078e+01 -4.262859344482421875e+01 -6.434991359710693359e+00
-2.928399562835693359e+00 -3.802793884277343750e+01 1.474225425720214844e+01
1.726443916559219360e-01 -3.281495666503906250e+01 1.568071269989013672e+01
1.205954313278198242e+00 -2.935968017578125000e+01 -3.476877927780151367e+00
-2.522510528564453125e+00 -3.472058868408203125e+01 -3.784523725509643555e+00
1.228973960876464844e+01 -4.448708343505859375e+01 1.360822010040283203e+01
4.686256408691406250e+00 -4.845858764648437500e+01 1.207338142395019531e+01
8.799659729003906250e+00 -4.784154510498046875e+01 1.232824039459228516e+01
6.643874168395996094e+00 -3.142184066772460938e+01 1.588301658630371094e+01
7.935613393783569336e-01 -3.433077239990234375e+01 2.085296058654785156e+01
-9.232929348945617676e-01 -4.508854293823242188e+01 3.497597503662109375e+01
-2.044762849807739258e+00 -4.001882934570312500e+01 2.462004661560058594e+01
-2.767853260040283203e+00 -4.411134338378906250e+01 2.332738685607910156e+01
-2.118702411651611328e+00 -4.900502395629882812e+01 3.422956085205078125e+01
-2.509988784790039062e+00 -3.820587921142578125e+01 2.010915946960449219e+01
1.552589297294616699e+00 -3.634463119506835938e+01 2.520339012145996094e+01
7.208564758300781250e+00 -5.547535324096679688e+01 3.222883987426757812e+01
1.912197828292846680e+00 -5.516686248779296875e+01 3.245537948608398438e+01
1.065745830535888672e+01 -5.375621795654296875e+01 3.296887207031250000e+01
7.771420478820800781e+00 -2.777058410644531250e+01 -3.718782901763916016e+00
1.186517524719238281e+01 -4.529479980468750000e+01 3.409744262695312500e+01
1.239199256896972656e+01 -5.071913528442382812e+01 3.330986022949218750e+01
-1.079072713851928711e+00 -4.764565277099609375e+01 2.181404495239257812e+01
-1.231506347656250000e+00 -5.273029327392578125e+01 3.357722473144531250e+01
2.004565238952636719e+00 -4.249269485473632812e+01 3.532475662231445312e+01
7.765139579772949219e+00 -4.121891403198242188e+01 3.432037353515625000e+01
2.451323032379150391e+00 -4.518187713623046875e+01 3.980880737304687500e+01
7.663157463073730469e+00 -4.449977493286132812e+01 3.935903167724609375e+01
1.187592601776123047e+01 -4.855938339233398438e+01 3.866628265380859375e+01
1.225280284881591797e+01 -5.300145339965820312e+01 3.722383880615234375e+01
1.046935749053955078e+01 -5.557949066162109375e+01 3.594152069091796875e+01
-5.625582337379455566e-01 -4.766219329833984375e+01 3.965052032470703125e+01
-2.004025459289550781e+00 -5.133815383911132812e+01 3.873788070678710938e+01
-9.530748128890991211e-01 -5.453100585937500000e+01 3.599335479736328125e+01
-8.030227422714233398e-01 -5.203030395507812500e+01 4.462926864624023438e+01
2.279097318649291992e+00 -5.030582427978515625e+01 4.624695968627929688e+01
1.119462871551513672e+01 -6.205525588989257812e+01 5.208891677856445312e+01
1.195901203155517578e+01 -5.822583770751953125e+01 4.844858932495117188e+01
1.082103729248046875e+01 -5.701528167724609375e+01 4.997746276855468750e+01
1.047608566284179688e+01 -6.055391693115234375e+01 5.355329513549804688e+01
1.157635593414306641e+01 -5.329006958007812500e+01 4.561303329467773438e+01
1.038406085968017578e+01 -5.360334396362304688e+01 4.758554458618164062e+01
7.225772857666015625e+00 -5.127471923828125000e+01 4.760971832275390625e+01
7.182926177978515625e+00 -5.545608520507812500e+01 5.138289260864257812e+01
2.625696659088134766e+00 -5.491275024414062500e+01 5.085803604125976562e+01
2.706035375595092773e+00 -5.844670486450195312e+01 5.484439086914062500e+01
6.897372245788574219e+00 -5.891667556762695312e+01 5.567688751220703125e+01
3.950169324874877930e+00 -5.185810089111328125e+01 4.842329025268554688e+01
9.413911819458007812e+00 -6.233985137939453125e+01 5.577701568603515625e+01
9.120204925537109375e+00 -6.429039764404296875e+01 5.561796188354492188e+01
7.548377990722656250e+00 -4.932264328002929688e+01 4.558073425292968750e+01
1.241752433776855469e+01 -5.472328948974609375e+01 4.093455123901367188e+01
1.185543155670166016e+01 -6.029533767700195312e+01 4.687980651855468750e+01
1.037875270843505859e+01 -6.410887145996093750e+01 5.104160308837890625e+01
7.596621513366699219e+00 -6.608612060546875000e+01 5.480249786376953125e+01
9.800062179565429688e+00 -6.280131912231445312e+01 4.563160324096679688e+01
8.694791793823242188e+00 -6.562336730957031250e+01 5.011928558349609375e+01
6.355370998382568359e+00 -6.668479156494140625e+01 5.329433059692382812e+01
6.353741645812988281e+00 -6.420173645019531250e+01 4.475356292724609375e+01
5.710676670074462891e+00 -6.653598785400390625e+01 4.934964752197265625e+01
6.802680969238281250e+00 -5.820573043823242188e+01 3.667879104614257812e+01
1.041796112060546875e+01 -5.719499588012695312e+01 3.825371170043945312e+01
5.319446563720703125e+00 -6.681292724609375000e+01 5.178236770629882812e+01
5.958384513854980469e+00 -6.470610809326171875e+01 5.769876861572265625e+01
4.727413177490234375e+00 -6.666899108886718750e+01 5.541082763671875000e+01
6.692315578460693359e+00 -6.205756759643554688e+01 5.772352218627929688e+01
7.764142751693725586e-01 -5.546012115478515625e+01 5.019180297851562500e+01
9.603607058525085449e-01 -5.972781372070312500e+01 5.430208206176757812e+01
-8.712412118911743164e-01 -5.690627288818359375e+01 4.909555816650390625e+01
-9.731379896402359009e-02 -6.159590530395507812e+01 5.366284179687500000e+01
1.989441871643066406e+00 -6.317644500732421875e+01 5.669100189208984375e+01
2.894216775894165039e+00 -6.210799026489257812e+01 5.741996002197265625e+01
6.940383911132812500e+00 -5.676899337768554688e+01 3.451773071289062500e+01
2.011118888854980469e+00 -5.636406707763671875e+01 3.456609344482421875e+01
2.181672811508178711e+00 -5.766617584228515625e+01 3.653660202026367188e+01
2.277038812637329102e+00 -6.356856155395507812e+01 4.461629104614257812e+01
-9.506816864013671875e-01 -5.588529205322265625e+01 3.824659729003906250e+01
-1.969337701797485352e+00 -5.424146652221679688e+01 4.239617919921875000e+01
-1.578973054885864258e+00 -5.853379058837890625e+01 4.737895584106445312e+01
-6.433743238449096680e-01 -6.142573165893554688e+01 4.588092803955078125e+01
-5.689265727996826172e-01 -6.265105056762695312e+01 5.239064788818359375e+01
-3.148485124111175537e-01 -6.382374191284179688e+01 4.991930770874023438e+01
2.543009281158447266e+00 -6.584194183349609375e+01 4.890935134887695312e+01
1.456192135810852051e+00 -6.456380462646484375e+01 5.436877441406250000e+01
1.832374215126037598e+00 -6.388005828857421875e+01 5.563898849487304688e+01
4.028777122497558594e+00 -6.680323791503906250e+01 5.359138107299804688e+01
9.454976916313171387e-01 -6.527729797363281250e+01 5.256292724609375000e+01
3.361878633499145508e+00 -6.660827636718750000e+01 5.233092498779296875e+01
-2.260812759399414062e+01 -4.226111602783203125e+01 8.950991630554199219e+00
-2.692656517028808594e+01 -4.376822662353515625e+01 6.305799007415771484e+00
-2.532731819152832031e+01 -4.316811752319335938e+01 2.687561988830566406e+00
-2.066593170166015625e+01 -4.127866744995117188e+01 5.237679481506347656e+00
-2.404500579833984375e+01 -3.124947166442871094e+01 1.156245803833007812e+01
-2.157964134216308594e+01 -3.470761108398437500e+01 1.209508991241455078e+01
-1.987829971313476562e+01 -3.349713134765625000e+01 8.683654785156250000e+00
-2.184889602661132812e+01 -2.945583152770996094e+01 6.998952388763427734e+00
-2.900019264221191406e+01 -3.043473815917968750e+01 1.152150630950927734e+01
-2.630739212036132812e+01 -2.769025802612304688e+01 5.100300312042236328e+00
-2.007859039306640625e+01 -2.797195434570312500e+01 2.272527933120727539e+00
-1.829320907592773438e+01 -3.241471481323242188e+01 5.004689216613769531e+00
-1.247327804565429688e+01 -3.138341712951660156e+01 -8.519267082214355469e+00
-1.545649909973144531e+01 -2.537593650817871094e+01 -1.015852737426757812e+01
-2.110441589355468750e+01 -3.873299407958984375e+01 1.091085529327392578e+01
-1.952780151367187500e+01 -3.771472930908203125e+01 7.867321968078613281e+00
-3.093174362182617188e+01 -3.924275970458984375e+01 -2.532599925994873047e+00
-2.790903282165527344e+01 -4.173430633544921875e+01 -2.139505863189697266e+00
-2.983002281188964844e+01 -4.165896224975585938e+01 1.351043820381164551e+00
-3.260116577148437500e+01 -3.905404663085937500e+01 1.255739450454711914e+00
-1.466710376739501953e+01 -4.056922912597656250e+01 -1.352621746063232422e+01
-1.942308807373046875e+01 -4.070407867431640625e+01 -1.729418373107910156e+01
-1.339760398864746094e+01 -3.723719406127929688e+01 -9.933135986328125000e+00
-3.255367279052734375e+01 -3.437365722656250000e+01 -2.039112567901611328e+00
-3.043938064575195312e+01 -2.873041152954101562e+01 -2.001917839050292969e+00
-2.693867111206054688e+01 -2.755010986328125000e+01 -1.565346717834472656e+01
-2.763087081909179688e+01 -3.256639480590820312e+01 -1.712665748596191406e+01
-1.818176651000976562e+01 -3.699154663085937500e+01 4.782441616058349609e+00
-2.364786338806152344e+01 -4.278411102294921875e+01 -7.837384939193725586e-01
-1.957500648498535156e+01 -4.109859085083007812e+01 2.337778806686401367e+00
-2.471735000610351562e+01 -2.608186340332031250e+01 6.264034658670425415e-02
-3.165936851501464844e+01 -2.987659263610839844e+01 3.317861557006835938e+00
-3.951065826416015625e+01 -4.109172821044921875e+01 1.942351722717285156e+01
-3.505144119262695312e+01 -3.549214553833007812e+01 5.845701694488525391e+00
-3.391564178466796875e+01 -3.997240829467773438e+01 4.938748836517333984e+00
-3.924733734130859375e+01 -4.445201492309570312e+01 1.829588699340820312e+01
-3.396427917480468750e+01 -3.480052947998046875e+01 2.365182161331176758e+00
-3.324390411376953125e+01 -3.159444236755371094e+01 8.281173706054687500e+00
-2.869600486755371094e+01 -4.760616302490234375e+01 2.024913215637207031e+01
-3.260382843017578125e+01 -4.830551528930664062e+01 1.794330596923828125e+01
-2.647470474243164062e+01 -4.485825729370117188e+01 2.142211532592773438e+01
-2.132214736938476562e+01 -2.344592475891113281e+01 -1.316692638397216797e+01
-2.501730728149414062e+01 -3.777024078369140625e+01 -1.861583518981933594e+01
-2.836577987670898438e+01 -3.917961883544921875e+01 2.369634056091308594e+01
-2.646223449707031250e+01 -4.230099105834960938e+01 2.273530960083007812e+01
-3.121686363220214844e+01 -4.231785964965820312e+01 4.926260948181152344e+00
-3.692207336425781250e+01 -4.704013824462890625e+01 1.754557800292968750e+01
-3.750408935546875000e+01 -3.773775482177734375e+01 2.053952598571777344e+01
-3.276584625244140625e+01 -3.637287521362304688e+01 2.231550025939941406e+01
-3.909188842773437500e+01 -4.051435089111328125e+01 2.432154846191406250e+01
-3.435602569580078125e+01 -3.905941772460937500e+01 2.597936439514160156e+01
-2.995465087890625000e+01 -4.167478179931640625e+01 2.727301979064941406e+01
-2.801870346069335938e+01 -4.466537094116210938e+01 2.612899208068847656e+01
-2.804252052307128906e+01 -4.716410446166992188e+01 2.446720504760742188e+01
-4.096173858642578125e+01 -4.367693328857421875e+01 2.333787918090820312e+01
-4.063563919067382812e+01 -4.672487640380859375e+01 2.210445022583007812e+01
-3.752860641479492188e+01 -4.823860931396484375e+01 1.941411781311035156e+01
-4.188010406494140625e+01 -4.667083740234375000e+01 2.638419151306152344e+01
-4.039485168457031250e+01 -4.479015350341796875e+01 2.963101768493652344e+01
-3.433620071411132812e+01 -5.392486572265625000e+01 3.931335830688476562e+01
-3.294137191772460938e+01 -5.065373992919921875e+01 3.574780654907226562e+01
-3.375499343872070312e+01 -5.009827423095703125e+01 3.615814971923828125e+01
-3.535500717163085938e+01 -5.317244338989257812e+01 3.989195251464843750e+01
-3.240166091918945312e+01 -4.567145919799804688e+01 3.205434799194335938e+01
-3.356428527832031250e+01 -4.649094772338867188e+01 3.338569259643554688e+01
-3.641125106811523438e+01 -4.500564575195312500e+01 3.246753311157226562e+01
-3.789377975463867188e+01 -4.896704101562500000e+01 3.675100326538085938e+01
-4.198760223388671875e+01 -4.942948150634765625e+01 3.391437530517578125e+01
-4.236595916748046875e+01 -5.244688034057617188e+01 3.761307907104492188e+01
-3.881420135498046875e+01 -5.225008392333984375e+01 4.051640319824218750e+01
-3.996400070190429688e+01 -4.576496124267578125e+01 3.142322349548339844e+01
-3.665940093994140625e+01 -5.461657714843750000e+01 4.140795135498046875e+01
-3.618041229248046875e+01 -5.545607757568359375e+01 4.122605514526367188e+01
-3.601868438720703125e+01 -4.329610061645507812e+01 3.077698326110839844e+01
-2.972916603088378906e+01 -4.723217773437500000e+01 2.977603721618652344e+01
-3.162781715393066406e+01 -5.225524902343750000e+01 3.451967239379882812e+01
-3.332473754882812500e+01 -5.544606781005859375e+01 3.804064178466796875e+01
-3.545020294189453125e+01 -5.713873291015625000e+01 3.990535736083984375e+01
-3.187101745605468750e+01 -5.424498367309570312e+01 3.249279785156250000e+01
-3.350876235961914062e+01 -5.677468872070312500e+01 3.615683746337890625e+01
-3.543245315551757812e+01 -5.804892730712890625e+01 3.790741729736328125e+01
-3.342630004882812500e+01 -5.550228881835937500e+01 3.063497924804687500e+01
-3.482674026489257812e+01 -5.758873748779296875e+01 3.408615493774414062e+01
-3.070572280883789062e+01 -5.009542083740234375e+01 2.371547317504882812e+01
-2.913995361328125000e+01 -4.900989913940429688e+01 2.686715316772460938e+01
-3.598469924926757812e+01 -5.834234619140625000e+01 3.617241287231445312e+01
-3.891078948974609375e+01 -5.583893966674804688e+01 4.195837402343750000e+01
-3.769963455200195312e+01 -5.874965667724609375e+01 3.868563842773437500e+01
-3.887745285034179688e+01 -5.462484741210937500e+01 4.180329132080078125e+01
-4.271210479736328125e+01 -4.979718780517578125e+01 3.236383056640625000e+01
-4.330213928222656250e+01 -5.413684082031250000e+01 3.676634597778320312e+01
-4.278382110595703125e+01 -5.133495330810546875e+01 3.044205856323242188e+01
-4.332767486572265625e+01 -5.548606491088867188e+01 3.503200149536132812e+01
-4.231615447998046875e+01 -5.601399993896484375e+01 3.996092987060546875e+01
-4.205753326416015625e+01 -5.517899703979492188e+01 4.018660736083984375e+01
-2.982800292968750000e+01 -4.882093811035156250e+01 2.171439552307128906e+01
-3.380535125732421875e+01 -4.935400390625000000e+01 1.969117164611816406e+01
-3.442425537109375000e+01 -5.074192810058593750e+01 2.173283767700195312e+01
-3.666527938842773438e+01 -5.630527496337890625e+01 2.918056106567382812e+01
-3.800809097290039062e+01 -4.979310226440429688e+01 2.145419311523437500e+01
-4.132611846923828125e+01 -4.946957397460937500e+01 2.501499366760253906e+01
-4.185679244995117188e+01 -5.347438430786132812e+01 2.907840538024902344e+01
-3.985240554809570312e+01 -5.547628021240234375e+01 2.881130981445312500e+01
-4.224446868896484375e+01 -5.653760910034179688e+01 3.355339813232421875e+01
-4.066022872924804688e+01 -5.727834320068359375e+01 3.215958786010742188e+01
-3.737154388427734375e+01 -5.821479415893554688e+01 3.259007644653320312e+01
-4.126560211181640625e+01 -5.816078948974609375e+01 3.617221069335937500e+01
-4.200981521606445312e+01 -5.731322097778320312e+01 3.814274597167968750e+01
-3.792922210693359375e+01 -5.893442916870117188e+01 3.706491851806640625e+01
-4.008971023559570312e+01 -5.827565765380859375e+01 3.465618896484375000e+01
-3.791276168823242188e+01 -5.883560180664062500e+01 3.549663543701171875e+01
-2.257304573059082031e+01 -3.951122283935546875e+01 -1.907062339782714844e+01
-4.116817474365234375e+01 -4.769085693359375000e+01 -9.260805130004882812e+00
-4.291069793701171875e+01 -5.023831939697265625e+01 -1.127991104125976562e+01
-4.237165069580078125e+01 -4.976518249511718750e+01 -1.472608375549316406e+01
-3.974068450927734375e+01 -4.755213165283203125e+01 -1.315575218200683594e+01
-4.470742034912109375e+01 -3.868907165527343750e+01 -9.082302093505859375e+00
-4.220337677001953125e+01 -4.167320632934570312e+01 -7.607811927795410156e+00
-3.975467681884765625e+01 -4.027161788940429688e+01 -1.112232017517089844e+01
-4.234685897827148438e+01 -3.692693328857421875e+01 -1.254688453674316406e+01
-4.890306472778320312e+01 -3.838945007324218750e+01 -1.133162879943847656e+01
-4.715036773681640625e+01 -3.645955657958984375e+01 -1.491870403289794922e+01
-4.096368408203125000e+01 -3.573387908935546875e+01 -1.499517631530761719e+01
-3.784731292724609375e+01 -3.941828536987304688e+01 -1.407863140106201172e+01
-3.072311782836914062e+01 -3.361569976806640625e+01 -2.565966224670410156e+01
-3.308266830444335938e+01 -3.044152450561523438e+01 -2.850796890258789062e+01
-3.945626068115234375e+01 -4.185468673706054688e+01 -4.131047821044921875e+01
-3.512196350097656250e+01 -4.539356613159179688e+01 -4.025635910034179688e+01
-3.865068435668945312e+01 -4.563719177246093750e+01 -3.344418334960937500e+01
-4.147529220581054688e+01 -4.296279144287109375e+01 -3.504939270019531250e+01
-4.104840850830078125e+01 -4.474948883056640625e+01 -7.911523342132568359e+00
-3.881815338134765625e+01 -4.446344757080078125e+01 -1.145682334899902344e+01
-4.820108032226562500e+01 -4.683570861816406250e+01 -2.268278884887695312e+01
-4.505847930908203125e+01 -4.919689559936523438e+01 -2.107419395446777344e+01
-4.547424697875976562e+01 -5.050505447387695312e+01 -1.693619155883789062e+01
-4.921411514282226562e+01 -4.915633392333984375e+01 -1.833446311950683594e+01
-3.157163619995117188e+01 -4.624318695068359375e+01 -3.625662994384765625e+01
-2.854504394531250000e+01 -4.580175018310546875e+01 -3.320639419555664062e+01
-3.109537696838378906e+01 -4.503252029418945312e+01 -2.958108139038085938e+01
-3.543067169189453125e+01 -4.623073196411132812e+01 -3.076186752319335938e+01
-2.966239356994628906e+01 -4.159439849853515625e+01 -2.626725196838378906e+01
-4.997394943237304688e+01 -4.343466186523437500e+01 -2.265514183044433594e+01
-4.944570922851562500e+01 -3.835020828247070312e+01 -2.104051780700683594e+01
-4.232473754882812500e+01 -3.427921676635742188e+01 -3.581924819946289062e+01
-4.255915069580078125e+01 -3.867333984375000000e+01 -3.678364944458007812e+01
-3.726250076293945312e+01 -4.375414276123046875e+01 -1.432145977020263672e+01
-4.180214691162109375e+01 -4.932101821899414062e+01 -1.853523254394531250e+01
-3.885002136230468750e+01 -4.750528717041015625e+01 -1.633235549926757812e+01
-4.588503646850585938e+01 -3.514863204956054688e+01 -1.773545837402343750e+01
-5.119050216674804688e+01 -3.997756958007812500e+01 -1.754306411743164062e+01
-5.484088897705078125e+01 -5.063317108154296875e+01 -8.400716781616210938e+00
-5.258137130737304688e+01 -4.693236541748046875e+01 -1.560990715026855469e+01
-4.982924652099609375e+01 -5.058686065673828125e+01 -1.486031150817871094e+01
-5.309643554687500000e+01 -5.269691085815429688e+01 -8.121862411499023438e+00
-5.149163818359375000e+01 -4.525130462646484375e+01 -1.898471450805664062e+01
-5.261499786376953125e+01 -4.188940811157226562e+01 -1.391095447540283203e+01
-4.453926849365234375e+01 -5.079808807373046875e+01 -2.275465011596679688e+00
-4.657683563232421875e+01 -5.346226882934570312e+01 -5.277597904205322266e+00
-4.459102630615234375e+01 -4.826192474365234375e+01 -1.198168158531188965e+00
-3.820645523071289062e+01 -2.959466552734375000e+01 -3.198085975646972656e+01
-4.894493865966796875e+01 -4.338346099853515625e+01 -1.805054068565368652e+00
-4.612951660156250000e+01 -4.581121063232421875e+01 -5.054930448532104492e-01
-4.595964813232421875e+01 -5.147562408447265625e+01 -1.317842864990234375e+01
-4.997369384765625000e+01 -5.388462066650390625e+01 -7.262509822845458984e+00
-5.542926788330078125e+01 -4.715367889404296875e+01 -7.414221763610839844e+00
-5.292417144775390625e+01 -4.335682296752929688e+01 -4.779084682464599609e+00
-5.653578948974609375e+01 -4.900764083862304688e+01 -3.738399505615234375e+00
-5.379481124877929688e+01 -4.535192489624023438e+01 -1.509367585182189941e+00
-4.965869140625000000e+01 -4.587889862060546875e+01 1.617750883102416992e+00
-4.682061004638671875e+01 -4.761244583129882812e+01 1.851451516151428223e+00
-4.543088531494140625e+01 -4.987696456909179688e+01 1.127661824226379395e+00
-5.587493896484375000e+01 -5.238604736328125000e+01 -5.055121421813964844e+00
-5.401884841918945312e+01 -5.424499511718750000e+01 -5.247974872589111328e+00
-5.071698760986328125e+01 -5.500067901611328125e+01 -5.172626495361328125e+00
-5.717493438720703125e+01 -5.407553863525390625e+01 -1.494716405868530273e+00
-5.777788543701171875e+01 -5.138520431518554688e+01 1.138099670410156250e+00
-5.306490325927734375e+01 -5.500314331054687500e+01 1.200864410400390625e+01
-5.158821487426757812e+01 -5.275478363037109375e+01 9.382911682128906250e+00
-5.255556106567382812e+01 -5.231550216674804688e+01 9.243098258972167969e+00
-5.379877853393554688e+01 -5.459505462646484375e+01 1.205525875091552734e+01
-5.105776977539062500e+01 -4.931467056274414062e+01 5.716609001159667969e+00
-5.242849731445312500e+01 -4.978823089599609375e+01 6.254624366760253906e+00
-5.489636230468750000e+01 -4.910135650634765625e+01 3.997896671295166016e+00
-5.610121536254882812e+01 -5.207108306884765625e+01 7.841589927673339844e+00
-5.895996856689453125e+01 -5.470959472656250000e+01 5.409321784973144531e+00
-5.939925384521484375e+01 -5.644608306884765625e+01 8.596401214599609375e+00
-5.708272552490234375e+01 -5.396950149536132812e+01 1.065071582794189453e+01
-5.762224578857421875e+01 -5.144745635986328125e+01 3.049428939819335938e+00
-5.544765090942382812e+01 -5.562188720703125000e+01 1.345265960693359375e+01
-5.533171844482421875e+01 -5.640694427490234375e+01 1.379818153381347656e+01
-5.439352416992187500e+01 -4.799177169799804688e+01 2.694328784942626953e+00
-4.784983444213867188e+01 -5.046992492675781250e+01 5.070739746093750000e+00
-5.019620513916015625e+01 -5.446915817260742188e+01 9.549047470092773438e+00
-5.274095916748046875e+01 -5.672287750244140625e+01 1.247753334045410156e+01
-5.499907302856445312e+01 -5.788367843627929688e+01 1.354208946228027344e+01
-4.896631622314453125e+01 -5.566933441162109375e+01 8.098215103149414062e+00
-5.203806686401367188e+01 -5.796021652221679688e+01 1.154869365692138672e+01
-5.416118240356445312e+01 -5.901354217529296875e+01 1.245390510559082031e+01
-4.891883087158203125e+01 -5.726940155029296875e+01 5.963698387145996094e+00
-5.174129104614257812e+01 -5.915459442138671875e+01 9.815618515014648438e+00
-4.632710266113281250e+01 -5.424414825439453125e+01 8.447027206420898438e-01
-4.639549636840820312e+01 -5.228801345825195312e+01 3.468735933303833008e+00
-5.364311599731445312e+01 -5.962210083007812500e+01 1.132025623321533203e+01
-5.793785476684570312e+01 -5.710649871826171875e+01 1.327337932586669922e+01
-5.672488403320312500e+01 -5.905487060546875000e+01 1.268007469177246094e+01
-5.802920532226562500e+01 -5.605503082275390625e+01 1.267558765411376953e+01
-5.896901321411132812e+01 -5.543097686767578125e+01 4.475033760070800781e+00
-5.939020919799804688e+01 -5.767283248901367188e+01 8.229739189147949219e+00
-5.817810058593750000e+01 -5.697876739501953125e+01 3.362528562545776367e+00
-5.857344818115234375e+01 -5.892545318603515625e+01 7.859786987304687500e+00
-5.907112884521484375e+01 -5.805770111083984375e+01 1.081496810913085938e+01
-5.910957717895507812e+01 -5.670964813232421875e+01 1.079082870483398438e+01
-4.548715209960937500e+01 -5.279340744018554688e+01 -5.487662553787231445e-01
-4.721762084960937500e+01 -5.445905685424804688e+01 -3.333031177520751953e+00
-4.830995559692382812e+01 -5.575476074218750000e+01 -1.767353296279907227e+00
-5.060916519165039062e+01 -5.859642410278320312e+01 3.770924329757690430e+00
-5.179979324340820312e+01 -5.612706756591796875e+01 -3.267361402511596680e+00
-5.505413818359375000e+01 -5.549831008911132812e+01 -2.776610612869262695e+00
-5.644899368286132812e+01 -5.830470657348632812e+01 2.797274351119995117e+00
-5.385222244262695312e+01 -5.903766632080078125e+01 2.847532510757446289e+00
-5.733353424072265625e+01 -5.972468948364257812e+01 7.685419559478759766e+00
-5.520943450927734375e+01 -6.033378219604492188e+01 7.308380126953125000e+00
-5.285454177856445312e+01 -6.009262847900390625e+01 8.066770553588867188e+00
-5.721089935302734375e+01 -5.958268356323242188e+01 1.037469673156738281e+01
-5.820330810546875000e+01 -5.912273025512695312e+01 1.074933719635009766e+01
-5.573755645751953125e+01 -5.942952728271484375e+01 1.158248710632324219e+01
-5.573604202270507812e+01 -5.999897003173828125e+01 9.831809043884277344e+00
-5.461055374145507812e+01 -5.996895599365234375e+01 1.047840690612792969e+01
-4.133303451538085938e+01 -3.876680755615234375e+01 -3.982304382324218750e+01
5.969798660278320312e+01 -5.995277023315429688e+01 -4.342061614990234375e+01
5.527866363525390625e+01 -6.021122360229492188e+01 -4.187528228759765625e+01
4.927768325805664062e+01 -7.551585388183593750e+01 -4.810449981689453125e+01
4.743268585205078125e+01 -6.956272888183593750e+01 -4.242554473876953125e+01
5.518318557739257812e+01 -7.783737182617187500e+01 -5.121876907348632812e+01
6.390600585937500000e+01 -7.220155334472656250e+01 -5.220188140869140625e+01
6.011661529541015625e+01 -7.575062561035156250e+01 -5.297006225585937500e+01
5.059978485107421875e+01 -6.339192581176757812e+01 -4.059841918945312500e+01
6.336158370971679688e+01 -6.185673141479492188e+01 -4.664847564697265625e+01
6.518103790283203125e+01 -6.651631164550781250e+01 -5.040110015869140625e+01
6.513958740234375000e+01 -6.580462646484375000e+01 -3.984307861328125000e+01
6.708274078369140625e+01 -7.053916168212890625e+01 -4.344631195068359375e+01
6.584087371826171875e+01 -7.621051788330078125e+01 -4.531812667846679688e+01
6.138419342041015625e+01 -7.942393493652343750e+01 -4.751272964477539062e+01
5.657353973388671875e+01 -8.045855712890625000e+01 -4.739933395385742188e+01
6.057525634765625000e+01 -6.325659942626953125e+01 -3.766667938232421875e+01
5.582642364501953125e+01 -6.341948699951171875e+01 -3.679573822021484375e+01
5.031772994995117188e+01 -6.683587646484375000e+01 -3.722611236572265625e+01
5.915756225585937500e+01 -6.778829956054687500e+01 -3.089425659179687500e+01
6.104716110229492188e+01 -7.581764984130859375e+01 -2.594109153747558594e+01
5.747624588012695312e+01 -9.307847595214843750e+01 -2.564648056030273438e+01
5.900516510009765625e+01 -9.024879455566406250e+01 -3.092571067810058594e+01
6.056580734252929688e+01 -8.907736968994140625e+01 -2.889226913452148438e+01
5.927790451049804688e+01 -9.221949005126953125e+01 -2.460495567321777344e+01
6.205357742309570312e+01 -8.589154815673828125e+01 -3.316874313354492188e+01
6.218880081176757812e+01 -8.584131622314453125e+01 -3.083725547790527344e+01
6.336284255981445312e+01 -8.124302673339843750e+01 -2.856171798706054688e+01
6.168015670776367188e+01 -8.490470886230468750e+01 -2.470157432556152344e+01
6.130236053466796875e+01 -7.844246673583984375e+01 -2.510101318359375000e+01
5.970742797851562500e+01 -8.012767028808593750e+01 -2.201089096069335938e+01
6.087147140502929688e+01 -8.779306793212890625e+01 -2.115312194824218750e+01
5.949892425537109375e+01 -9.247489166259765625e+01 -2.123436546325683594e+01
5.921662139892578125e+01 -8.971885681152343750e+01 -1.816035270690917969e+01
5.715463256835937500e+01 -9.351849365234375000e+01 -2.109167861938476562e+01
6.389841842651367188e+01 -8.017183685302734375e+01 -2.964006996154785156e+01
6.060061645507812500e+01 -8.503055572509765625e+01 -3.958950042724609375e+01
5.677067947387695312e+01 -8.993797302246093750e+01 -3.357301712036132812e+01
5.468573760986328125e+01 -9.257398223876953125e+01 -2.683485984802246094e+01
5.475735473632812500e+01 -9.265132904052734375e+01 -2.167936134338378906e+01
5.333998489379882812e+01 -8.859165954589843750e+01 -3.454455947875976562e+01
5.211963653564453125e+01 -9.046192932128906250e+01 -2.788479042053222656e+01
5.220307540893554688e+01 -9.030635070800781250e+01 -2.291016387939453125e+01
5.013232040405273438e+01 -8.580456542968750000e+01 -3.349192810058593750e+01
5.019425201416015625e+01 -8.775836181640625000e+01 -2.727259254455566406e+01
5.109193038940429688e+01 -7.982369232177734375e+01 -4.305606079101562500e+01
5.617488861083984375e+01 -8.340309143066406250e+01 -4.336263275146484375e+01
5.105681610107421875e+01 -8.842793273925781250e+01 -2.361620521545410156e+01
5.745097732543945312e+01 -8.974860382080078125e+01 -1.711741256713867188e+01
5.452562332153320312e+01 -8.876783752441406250e+01 -1.766413879394531250e+01
5.791592407226562500e+01 -7.738951873779296875e+01 -2.185129547119140625e+01
5.865206146240234375e+01 -8.320442199707031250e+01 -1.892873954772949219e+01
5.662583541870117188e+01 -8.150032806396484375e+01 -1.857034873962402344e+01
5.557656097412109375e+01 -7.492228698730468750e+01 -2.308434104919433594e+01
5.446100616455078125e+01 -8.058500671386718750e+01 -1.905352973937988281e+01
5.656710052490234375e+01 -8.557936096191406250e+01 -1.667221260070800781e+01
5.864701080322265625e+01 -8.617501831054687500e+01 -1.756906700134277344e+01
5.102886199951171875e+01 -7.808364105224609375e+01 -4.598252105712890625e+01
4.819981765747070312e+01 -7.270413970947265625e+01 -4.166371917724609375e+01
4.870464324951171875e+01 -7.440749359130859375e+01 -3.896391296386718750e+01
4.806944656372070312e+01 -8.037139892578125000e+01 -3.071625709533691406e+01
5.048567962646484375e+01 -6.946634674072265625e+01 -3.425003433227539062e+01
5.531957244873046875e+01 -6.714022064208984375e+01 -3.171544837951660156e+01
5.261455154418945312e+01 -7.444761657714843750e+01 -2.450684165954589844e+01
4.944834136962890625e+01 -7.598888397216796875e+01 -2.717994308471679688e+01
5.205121612548828125e+01 -8.060792541503906250e+01 -2.047968673706054688e+01
5.048535537719726562e+01 -8.144557189941406250e+01 -2.220083236694335938e+01
4.943892669677734375e+01 -8.464727020263671875e+01 -2.484846878051757812e+01
5.247029876708984375e+01 -8.467238616943359375e+01 -1.906691932678222656e+01
5.439924240112304688e+01 -8.482370758056640625e+01 -1.748989105224609375e+01
5.232108688354492188e+01 -8.811927795410156250e+01 -1.982143020629882812e+01
5.109706878662109375e+01 -8.434060668945312500e+01 -2.072680282592773438e+01
