3.284807205200195312e+01 -7.109825134277343750e+01 -7.352584838867187500e+00
3.313623809814453125e+01 -6.875175476074218750e+01 -6.440874576568603516e+00
-1.613392233848571777e+00 -4.431516265869140625e+01 -6.055521392822265625e+01
2.994134140014648438e+01 -2.313640213012695312e+01 -4.292046356201171875e+01
-9.837377667427062988e-01 -4.526748657226562500e+01 -7.159410858154296875e+01
-2.677646827697753906e+01 -3.753980255126953125e+01 -3.598853302001953125e+01
-2.882189941406250000e+01 -4.457826995849609375e+01 -3.718748474121093750e+01
-2.701262855529785156e+01 -4.796530151367187500e+01 -3.627675247192382812e+01
-2.722557449340820312e+01 -4.337909698486328125e+01 -3.207364654541015625e+01
1.425517272949218750e+01 -6.414152526855468750e+01 -6.178358554840087891e+00
1.761730766296386719e+01 -6.654716491699218750e+01 -9.465519905090332031e+00
1.754083061218261719e+01 -6.885810852050781250e+01 -8.502629280090332031e+00
1.404002380371093750e+01 -6.804292297363281250e+01 -4.756357192993164062e+00
2.676755332946777344e+01 -5.469348907470703125e+01 -2.355701065063476562e+01
3.230949020385742188e+01 -5.376373291015625000e+01 -2.392933845520019531e+01
3.117774391174316406e+01 -5.692307281494140625e+01 -1.974334335327148438e+01
2.558581161499023438e+01 -5.700046920776367188e+01 -2.001536941528320312e+01
3.600206756591796875e+01 -5.190760421752929688e+01 -2.063575553894042969e+01
3.525560760498046875e+01 -5.532197189331054688e+01 -1.710789680480957031e+01
1.461946868896484375e+01 -6.271907424926757812e+01 -1.210961103439331055e+00
1.988510704040527344e+01 -6.286469268798828125e+01 3.351032972335815430e+00
1.975071144104003906e+01 -4.877328872680664062e+01 -5.904901504516601562e+00
1.519780254364013672e+01 -5.319320678710937500e+01 -8.895046234130859375e+00
-6.755088806152343750e+00 -1.290620708465576172e+01 -7.161505126953125000e+01
-1.526835823059082031e+01 -1.505318927764892578e+01 -7.618955993652343750e+01
-1.954114723205566406e+01 -2.000147628784179688e+01 -6.386791992187500000e+01
-2.461273956298828125e+01 -2.460097312927246094e+01 -5.182270431518554688e+01
-2.816737937927246094e+01 -3.180247497558593750e+01 -4.107060623168945312e+01
-1.956102943420410156e+01 -2.737994956970214844e+01 -3.592027282714843750e+01
-2.475178527832031250e+01 -2.191681289672851562e+01 -6.855781555175781250e+01
1.364205932617187500e+01 -4.504841232299804688e+01 -1.336291503906250000e+01
1.899653244018554688e+01 -3.958130645751953125e+01 -1.258818912506103516e+01
1.301338005065917969e+01 -3.748363876342773438e+01 -1.375893211364746094e+01
-6.869557380676269531e+00 -4.677143096923828125e+01 -7.419251251220703125e+01
3.386043930053710938e+01 -6.596066284179687500e+01 -7.267985343933105469e+00
3.104797363281250000e+01 -9.692281723022460938e+00 -8.790168762207031250e+01
1.944421386718750000e+01 -4.604436397552490234e+00 -8.748287200927734375e+01
1.990810012817382812e+01 -7.797181606292724609e+00 -8.219798278808593750e+01
3.231483459472656250e+01 -1.405446052551269531e+01 -8.286506652832031250e+01
2.485854339599609375e+01 -6.775346374511718750e+01 -1.182542991638183594e+01
3.077383995056152344e+01 -6.735461425781250000e+01 -1.104419517517089844e+01
-2.125126075744628906e+01 -5.253615188598632812e+01 -4.208269500732421875e+01
-2.125890350341796875e+01 -5.249765014648437500e+01 -3.664594268798828125e+01
-2.385106277465820312e+01 -5.222061157226562500e+01 -3.684382247924804688e+01
-2.448938369750976562e+01 -5.456676483154296875e+01 -4.152074432373046875e+01
-1.902775764465332031e+01 -1.655578041076660156e+01 -7.990242004394531250e+01
-3.954045867919921875e+01 -4.424193191528320312e+01 -5.233867263793945312e+01
-3.653201293945312500e+01 -3.767889404296875000e+01 -4.549039840698242188e+01
-1.107910728454589844e+01 -1.067380142211914062e+01 -8.600982666015625000e+01
-3.413380146026611328e+00 -8.909503936767578125e+00 -8.204785919189453125e+01
-1.226978421211242676e+00 -5.288738250732421875e+00 -8.829676055908203125e+01
-8.100176811218261719e+00 -3.105949783325195312e+01 -2.431296348571777344e+01
-2.174853533506393433e-01 -1.270415019989013672e+01 -6.638099670410156250e+01
2.953599929809570312e+00 -8.814477920532226562e+00 -7.837265014648437500e+01
5.778166294097900391e+00 -5.082884311676025391e+00 -8.591146087646484375e+01
7.244770050048828125e+00 -1.290500760078430176e+00 -9.078004455566406250e+01
-5.710422396659851074e-01 -1.842720746994018555e+00 -9.312619781494140625e+01
2.585227394104003906e+01 -6.351459884643554688e+01 3.712397098541259766e+00
1.961383247375488281e+01 -6.955910491943359375e+01 4.339509487152099609e+00
1.910209208726882935e-01 1.570505857467651367e+00 -9.953575897216796875e+01
8.513793945312500000e+00 2.259868144989013672e+00 -9.621421813964843750e+01
1.125737190246582031e+01 -9.475925445556640625e+00 -7.456972503662109375e+01
2.123128509521484375e+01 -1.248470211029052734e+01 -7.143540954589843750e+01
8.288835525512695312e+00 -1.282258415222167969e+01 -6.301400756835937500e+01
1.849502754211425781e+01 -1.529036235809326172e+01 -5.872765350341796875e+01
2.012099027633666992e+00 -2.519497108459472656e+01 -2.262608909606933594e+01
1.802650833129882812e+01 -8.296730041503906250e+01 -8.831486701965332031e+00
1.558353233337402344e+01 -7.459617614746093750e+01 -1.496387600898742676e+00
1.439263916015625000e+01 -7.280603027343750000e+01 -5.719222068786621094e+00
1.622212600708007812e+01 -8.113592529296875000e+01 -1.138635635375976562e+01
1.478129291534423828e+01 -6.843328857421875000e+01 7.625540345907211304e-02
2.001755714416503906e+01 -7.482714843750000000e+01 2.247750520706176758e+00
3.157260704040527344e+01 -2.133189964294433594e+01 -5.682638549804687500e+01
1.257775306701660156e+01 -5.151661300659179688e+01 -1.971841812133789062e+01
3.485262298583984375e+01 -2.090724563598632812e+01 -7.129225158691406250e+01
4.116700744628906250e+01 -3.294710922241210938e+01 -5.294457244873046875e+01
4.337292480468750000e+01 -3.446149444580078125e+01 -6.443067932128906250e+01
3.973743438720703125e+01 -2.265995407104492188e+01 -8.598944854736328125e+01
4.413703155517578125e+01 -3.317099380493164062e+01 -7.802762603759765625e+01
3.855924606323242188e+01 -1.402696037292480469e+01 -9.632842254638671875e+01
3.834337615966796875e+01 -1.786537551879882812e+01 -9.061779785156250000e+01
4.783285522460937500e+01 -4.597098922729492188e+01 -7.155671691894531250e+01
2.855297851562500000e+01 -7.507003021240234375e+01 -1.517352771759033203e+01
2.235298538208007812e+01 -7.525090026855468750e+01 -1.519389629364013672e+01
3.141746139526367188e+01 -6.036419868469238281e+00 -9.328899383544921875e+01
2.640572547912597656e+01 -7.026593017578125000e+01 -6.739140319824218750e+01
-3.576816082000732422e+00 -4.725640487670898438e+01 -8.374778747558593750e+01
4.707109928131103516e-01 -4.632876586914062500e+01 -8.120552062988281250e+01
-1.920545005798339844e+01 -4.516950225830078125e+01 -9.215580749511718750e+01
-9.617787361145019531e+00 -4.842595291137695312e+01 -8.792108154296875000e+01
3.223278808593750000e+01 -7.640061187744140625e+01 -1.312881755828857422e+01
-6.363912105560302734e+00 -5.061567687988281250e+01 -2.056570816040039062e+01
-9.253545761108398438e+00 -4.979509735107421875e+01 -2.165944671630859375e+01
3.970609664916992188e+01 -7.508605194091796875e+01 -7.442723083496093750e+01
4.258999633789062500e+01 -7.953563690185546875e+01 -6.991746520996093750e+01
5.239039993286132812e+01 -7.199121093750000000e+01 -6.768757629394531250e+01
4.844368362426757812e+01 -7.677382659912109375e+01 -7.045013427734375000e+01
4.624730300903320312e+01 -7.040911102294921875e+01 -7.545438385009765625e+01
5.029198074340820312e+01 -6.473417663574218750e+01 -7.268924713134765625e+01
3.230487108230590820e+00 -4.663855743408203125e+01 -9.161847686767578125e+01
1.445519477128982544e-01 -4.686546707153320312e+01 -9.265461730957031250e+01
-2.534996795654296875e+01 -2.445272827148437500e+01 -8.631482696533203125e+01
-2.615306472778320312e+01 -3.480939483642578125e+01 -9.001476287841796875e+01
3.662214279174804688e+01 -4.773165512084960938e+01 -1.660816955566406250e+01
3.460572052001953125e+01 -3.699497604370117188e+01 -1.839542388916015625e+01
3.337692642211914062e+01 -4.293357086181640625e+01 -1.255566692352294922e+01
2.703540611267089844e+01 -4.656921386718750000e+01 -6.193630218505859375e+00
1.315490722656250000e+01 -4.978461456298828125e+01 -1.540998649597167969e+01
1.542201232910156250e+01 -4.894887542724609375e+01 -1.349461364746093750e+01
1.568893432617187500e+01 -5.045472335815429688e+01 -9.757397460937500000e+01
9.599101066589355469e+00 -5.099478530883789062e+01 -8.628923034667968750e+01
3.399181365966796875e+01 -7.194325256347656250e+01 -5.576599121093750000e+01
3.914905548095703125e+01 -7.205232238769531250e+01 -5.172275543212890625e+01
4.164417743682861328e+00 -4.864591217041015625e+01 -3.695816040039062500e+01
-5.775804042816162109e+00 -3.880764007568359375e+01 -1.649178504943847656e+01
1.949270009994506836e+00 -3.343163299560546875e+01 -1.422795677185058594e+01
4.397739887237548828e+00 -5.020043945312500000e+01 -2.839105224609375000e+01
3.183220291137695312e+01 -8.078197479248046875e+01 -8.501253128051757812e+00
3.305669021606445312e+01 -7.826883697509765625e+01 -1.114542770385742188e+01
2.732018089294433594e+01 -3.913016510009765625e+01 -1.138516044616699219e+01
-1.594713878631591797e+01 -4.986770629882812500e+01 -4.711558914184570312e+01
-1.206499290466308594e+01 -3.677635955810546875e+01 -2.234926605224609375e+01
-6.534618377685546875e+00 -4.598968505859375000e+01 -1.745543098449707031e+01
-3.667460250854492188e+01 -4.812419891357421875e+01 -5.732407760620117188e+01
2.044952964782714844e+01 -8.948187828063964844e-01 -9.339013671875000000e+01
1.724562072753906250e+01 -7.171257019042968750e+01 -9.385215759277343750e+00
1.741205406188964844e+01 -7.701970672607421875e+01 -1.364080524444580078e+01
2.150935745239257812e+01 -8.328886413574218750e+01 -6.497687339782714844e+00
2.727803421020507812e+01 -8.221377563476562500e+01 -5.510643005371093750e+00
-2.038634681701660156e+01 -3.349869155883789062e+01 -9.905324554443359375e+01
2.635498046875000000e+00 -4.612969589233398438e+01 -7.919470977783203125e+01
5.012155914306640625e+01 -5.570317459106445312e+01 -6.774514770507812500e+01
5.298491287231445312e+01 -6.619902038574218750e+01 -6.312657928466796875e+01
4.626479625701904297e+00 -5.094966506958007812e+01 -2.280476951599121094e+01
-3.138677597045898438e+01 -3.895415115356445312e+01 -3.980390167236328125e+01
-2.154721069335937500e+01 -3.396424102783203125e+01 -2.958475875854492188e+01
-2.355800247192382812e+01 -4.005937576293945312e+01 -2.480604553222656250e+01
-1.799680709838867188e+01 -4.225831222534179688e+01 -1.992293739318847656e+01
-1.320791912078857422e+01 -4.706717681884765625e+01 -1.855131912231445312e+01
2.175428962707519531e+01 -8.638829040527343750e+01 -1.116200160980224609e+01
2.737815475463867188e+01 -8.560111999511718750e+01 -1.014820098876953125e+01
3.188194274902343750e+01 -8.379887390136718750e+01 -1.284693622589111328e+01
3.306572723388671875e+01 -8.096732330322265625e+01 -1.469620704650878906e+01
3.203433990478515625e+01 -7.800630187988281250e+01 -1.584063434600830078e+01
1.850852966308593750e+01 -8.573798370361328125e+01 -1.344401264190673828e+01
1.718004226684570312e+01 -8.383070373535156250e+01 -1.560390186309814453e+01
1.790566635131835938e+01 -7.911283874511718750e+01 -1.621222114562988281e+01
1.908107757568359375e+01 -8.755319213867187500e+01 -1.838365364074707031e+01
2.305180740356445312e+01 -8.986785888671875000e+01 -1.948237037658691406e+01
3.289056396484375000e+01 -8.660733795166015625e+01 -2.646606445312500000e+01
3.222745513916015625e+01 -8.716453552246093750e+01 -2.095763587951660156e+01
3.132656860351562500e+01 -8.854531097412109375e+01 -2.292485427856445312e+01
3.164543533325195312e+01 -8.884072113037109375e+01 -2.788469886779785156e+01
3.082834243774414062e+01 -8.975782012939453125e+01 -3.225167465209960938e+01
3.210677337646484375e+01 -8.753413391113281250e+01 -3.132761764526367188e+01
2.823253440856933594e+01 -8.972769927978515625e+01 -2.019389533996582031e+01
2.817806434631347656e+01 -9.059251403808593750e+01 -2.686181259155273438e+01
2.428248214721679688e+01 -9.079411315917968750e+01 -2.688274765014648438e+01
2.468200111389160156e+01 -9.132089996337890625e+01 -3.184127235412597656e+01
2.774608421325683594e+01 -9.139587402343750000e+01 -3.181661987304687500e+01
2.468668174743652344e+01 -9.044847106933593750e+01 -2.220277404785156250e+01
2.798402404785156250e+01 -8.917207336425781250e+01 -1.780595016479492188e+01
3.050160789489746094e+01 -8.883106994628906250e+01 -3.486582183837890625e+01
2.995190811157226562e+01 -9.038996887207031250e+01 -3.434481048583984375e+01
2.742351150512695312e+01 -9.145826721191406250e+01 -3.437772369384765625e+01
2.687086105346679688e+01 -9.021795654296875000e+01 -3.620787429809570312e+01
3.329714965820312500e+01 -8.262233734130859375e+01 -1.904390716552734375e+01
3.289625167846679688e+01 -8.469056701660156250e+01 -2.663980102539062500e+01
3.165747070312500000e+01 -8.561579895019531250e+01 -3.169002151489257812e+01
2.985293197631835938e+01 -8.723451995849609375e+01 -3.496505737304687500e+01
3.140692710876464844e+01 -8.278309631347656250e+01 -2.814761352539062500e+01
3.022240829467773438e+01 -8.426707458496093750e+01 -3.199413108825683594e+01
2.837134742736816406e+01 -8.577009582519531250e+01 -3.440709686279296875e+01
2.863726806640625000e+01 -8.185665893554687500e+01 -2.918717575073242188e+01
2.789319229125976562e+01 -8.366722106933593750e+01 -3.235964202880859375e+01
2.916514968872070312e+01 -7.776201629638671875e+01 -1.910124588012695312e+01
3.206369781494140625e+01 -7.921506500244140625e+01 -1.810949707031250000e+01
2.734713172912597656e+01 -8.497531127929687500e+01 -3.394406127929687500e+01
2.586060142517089844e+01 -8.916101837158203125e+01 -3.674614715576171875e+01
2.134589195251464844e+01 -8.975765228271484375e+01 -2.543540573120117188e+01
2.241714859008789062e+01 -9.022883605957031250e+01 -3.195237731933593750e+01
1.986487388610839844e+01 -8.844319915771484375e+01 -2.553738403320312500e+01
2.137200736999511719e+01 -8.895305633544921875e+01 -3.190088272094726562e+01
2.362788391113281250e+01 -9.046052551269531250e+01 -3.494842910766601562e+01
2.492512893676757812e+01 -9.135672760009765625e+01 -3.416101455688476562e+01
2.836578369140625000e+01 -7.614157867431640625e+01 -1.670309638977050781e+01
2.182526588439941406e+01 -7.664323425292968750e+01 -1.683538436889648438e+01
2.296312332153320312e+01 -7.793379211425781250e+01 -1.929102325439453125e+01
2.469098663330078125e+01 -8.212480163574218750e+01 -2.913475418090820312e+01
1.896854400634765625e+01 -8.052387237548828125e+01 -1.911811256408691406e+01
1.802788543701171875e+01 -8.523583221435546875e+01 -2.011442947387695312e+01
1.943774986267089844e+01 -8.663675689697265625e+01 -2.692728805541992188e+01
2.064276313781738281e+01 -8.431040191650390625e+01 -2.795668601989746094e+01
2.105000877380371094e+01 -8.722784423828125000e+01 -3.169068527221679688e+01
2.211108207702636719e+01 -8.549035644531250000e+01 -3.184010696411132812e+01
2.497163772583007812e+01 -8.404350280761718750e+01 -3.242922210693359375e+01
2.299029541015625000e+01 -8.772516632080078125e+01 -3.450988006591796875e+01
2.293656730651855469e+01 -8.945512390136718750e+01 -3.497590637207031250e+01
2.572360801696777344e+01 -8.730115509033203125e+01 -3.575646209716796875e+01
2.330558395385742188e+01 -8.641439056396484375e+01 -3.390472412109375000e+01
2.553358078002929688e+01 -8.577149200439453125e+01 -3.454990768432617188e+01
3.854725599288940430e+00 -7.423679351806640625e+01 -1.443608999252319336e+00
-1.995355606079101562e+00 -7.469313049316406250e+01 -5.117535591125488281e+00
-1.119363069534301758e+00 -7.089402770996093750e+01 -4.786481380462646484e+00
3.856161117553710938e+00 -7.058825683593750000e+01 -1.394411921501159668e+00
3.859738409519195557e-01 -7.273915100097656250e+01 8.325069427490234375e+00
4.076369285583496094e+00 -7.346109771728515625e+01 5.641874313354492188e+00
3.898985385894775391e+00 -6.878390502929687500e+01 6.112333774566650391e+00
-3.817213177680969238e-01 -6.709239959716796875e+01 8.577443122863769531e+00
-4.803519248962402344e+00 -7.237736511230468750e+01 8.370681762695312500e+00
-5.675931453704833984e+00 -6.593741607666015625e+01 8.003785133361816406e+00
3.254282176494598389e-01 -6.171716308593750000e+01 7.141106605529785156e+00
4.548219680786132812e+00 -6.370076751708984375e+01 4.827251911163330078e+00
1.037870979309082031e+01 -4.849300384521484375e+01 -8.559892654418945312e+00
6.714192390441894531e+00 -4.431569671630859375e+01 -5.708169460296630859e+00
-1.498332262039184570e+00 -5.330237579345703125e+01 -1.864086151123046875e+01
-4.612607479095458984e+00 -5.294001388549804688e+01 -1.712534523010253906e+01
5.065768241882324219e+00 -7.402050781250000000e+01 1.957933783531188965e+00
5.107079029083251953e+00 -6.995164489746093750e+01 2.584433794021606445e+00
-9.296064376831054688e+00 -6.634291839599609375e+01 -5.947638034820556641e+00
-4.967053413391113281e+00 -6.745195007324218750e+01 -6.747122287750244141e+00
-6.282929897308349609e+00 -7.089960479736328125e+01 -5.773934364318847656e+00
-1.036136245727539062e+01 -7.040260314941406250e+01 -4.162597656250000000e+00
9.390919685363769531e+00 -5.257189178466796875e+01 -1.515739440917968750e+01
4.378794193267822266e+00 -5.353144073486328125e+01 -1.773324775695800781e+01
1.060491657257080078e+01 -5.134321212768554688e+01 -1.197712707519531250e+01
-1.163670349121093750e+01 -6.432537841796875000e+01 -2.654490709304809570e+00
-1.085550498962402344e+01 -6.198192596435546875e+01 2.150238513946533203e+00
-6.737493038177490234e+00 -4.563299560546875000e+01 -9.096517562866210938e+00
-8.636536598205566406e+00 -5.001362991333007812e+01 -1.304001045227050781e+01
5.579720020294189453e+00 -6.567613220214843750e+01 1.434917688369750977e+00
7.250064015388488770e-01 -6.779772186279296875e+01 -5.381036281585693359e+00
4.515735626220703125e+00 -6.716592407226562500e+01 -2.554150342941284180e+00
-5.634681701660156250e+00 -6.060298919677734375e+01 6.091176033020019531e+00
-1.075843238830566406e+01 -6.781788635253906250e+01 4.268988609313964844e+00
-9.245492935180664062e+00 -8.698061370849609375e+01 -1.176914930343627930e+00
-1.140669822692871094e+01 -7.511794281005859375e+01 1.295864582061767578e-02
-1.031516075134277344e+01 -7.554243469238281250e+01 -3.790277957916259766e+00
-8.915670394897460938e+00 -8.714720153808593750e+01 -5.099178314208984375e+00
-1.192924976348876953e+01 -6.938093566894531250e+01 -3.239761888980865479e-01
-9.833748817443847656e+00 -7.366117858886718750e+01 4.810843467712402344e+00
3.633583784103393555e+00 -8.654644012451171875e+01 -5.564125537872314453e+00
-2.624608039855957031e+00 -8.688643646240234375e+01 -8.379423141479492188e+00
5.912709712982177734e+00 -8.678049468994140625e+01 -2.182134866714477539e+00
-5.763487815856933594e-01 -4.281336975097656250e+01 -5.976570129394531250e+00
2.571783542633056641e+00 -8.574181365966796875e+01 5.101950645446777344e+00
5.779439926147460938e+00 -8.641874694824218750e+01 1.113075733184814453e+00
-7.174079895019531250e+00 -7.513293457031250000e+01 -5.754219055175781250e+00
-6.902782440185546875e+00 -8.746965789794921875e+01 -7.854740142822265625e+00
-7.640556335449218750e+00 -8.647528839111328125e+01 2.469380140304565430e+00
-2.990497112274169922e+00 -8.469258117675781250e+01 6.050328731536865234e+00
-6.232593536376953125e+00 -9.161198425292968750e+01 1.097982406616210938e+00
-1.630090713500976562e+00 -9.070215606689453125e+01 4.142943382263183594e+00
4.159544944763183594e+00 -9.081707763671875000e+01 2.939180135726928711e+00
6.695662021636962891e+00 -9.029139709472656250e+01 -5.588867664337158203e-01
6.464650630950927734e+00 -8.965650939941406250e+01 -3.580826520919799805e+00
-7.888512611389160156e+00 -9.218263244628906250e+01 -2.472631454467773438e+00
-7.852517127990722656e+00 -9.199607849121093750e+01 -6.339723110198974609e+00
-6.008653163909912109e+00 -9.010604095458984375e+01 -8.878458023071289062e+00
-5.766094207763671875e+00 -9.788493347167968750e+01 -5.984258174896240234e+00
-3.530171155929565430e+00 -9.883358764648437500e+01 -2.975665330886840820e+00
1.094427776336669922e+01 -1.049613265991210938e+02 -8.793759346008300781e+00
9.707129478454589844e+00 -1.009754791259765625e+02 -5.295948982238769531e+00
8.182544708251953125e+00 -1.022709197998046875e+02 -4.767997741699218750e+00
9.790756225585937500e+00 -1.060377655029296875e+02 -7.757661342620849609e+00
6.746987819671630859e+00 -9.780831146240234375e+01 -1.234652876853942871e+00
5.916447639465332031e+00 -9.973667907714843750e+01 -2.071728944778442383e+00
1.786289930343627930e+00 -9.979247283935546875e+01 -1.438589453697204590e+00
4.160234451293945312e+00 -1.038309097290039062e+02 -4.991097450256347656e+00
-3.913740217685699463e-01 -1.038022232055664062e+02 -6.618077754974365234e+00
1.794813156127929688e+00 -1.078744659423828125e+02 -9.218827247619628906e+00
5.916934967041015625e+00 -1.081544570922851562e+02 -7.687606811523437500e+00
-9.231457710266113281e-01 -1.009719314575195312e+02 -3.450870513916015625e+00
9.693468093872070312e+00 -1.084906463623046875e+02 -9.519961357116699219e+00
1.017643451690673828e+01 -1.088283691406250000e+02 -1.134623908996582031e+01
9.374779462814331055e-01 -9.757037353515625000e+01 3.853129446506500244e-01
7.902030944824218750e+00 -9.384128570556640625e+01 -1.934229612350463867e+00
1.052387809753417969e+01 -1.000131378173828125e+02 -7.003439426422119141e+00
1.107064533233642578e+01 -1.046427993774414062e+02 -1.092571258544921875e+01
9.614331245422363281e+00 -1.088753662109375000e+02 -1.366285228729248047e+01
9.849548339843750000e+00 -9.969779968261718750e+01 -1.001952838897705078e+01
1.024926185607910156e+01 -1.044778442382812500e+02 -1.301172161102294922e+01
8.660961151123046875e+00 -1.080029144287109375e+02 -1.489235973358154297e+01
7.050056457519531250e+00 -9.973630523681640625e+01 -1.301090812683105469e+01
7.741293907165527344e+00 -1.046123199462890625e+02 -1.534871196746826172e+01
4.021708488464355469e+00 -9.098712158203125000e+01 -7.842507362365722656e+00
7.208847999572753906e+00 -9.195628356933593750e+01 -4.873162269592285156e+00
7.622424125671386719e+00 -1.069384155273437500e+02 -1.565066528320312500e+01
7.721597194671630859e+00 -1.112798690795898438e+02 -1.279491996765136719e+01
7.489135742187500000e+00 -1.103420410156250000e+02 -1.553964233398437500e+01
7.236659049987792969e+00 -1.105159149169921875e+02 -1.012271308898925781e+01
-1.960285544395446777e+00 -1.034848785400390625e+02 -7.973829746246337891e+00
6.871828436851501465e-01 -1.078596572875976562e+02 -1.116277122497558594e+01
-3.039466857910156250e+00 -1.030197143554687500e+02 -1.000260066986083984e+01
4.171858727931976318e-01 -1.078804321289062500e+02 -1.333670997619628906e+01
3.362905979156494141e+00 -1.105797119140625000e+02 -1.320534992218017578e+01
3.821282148361206055e+00 -1.108106079101562500e+02 -1.179305076599121094e+01
3.658229112625122070e+00 -8.883321380615234375e+01 -6.727121829986572266e+00
-2.190981149673461914e+00 -8.906041717529296875e+01 -9.089396476745605469e+00
-1.522689461708068848e+00 -9.113130950927734375e+01 -9.866874694824218750e+00
2.118568897247314453e+00 -1.001808929443359375e+02 -1.457178306579589844e+01
-5.366348743438720703e+00 -9.253535461425781250e+01 -9.701326370239257812e+00
-6.279031276702880859e+00 -9.630613708496093750e+01 -8.447772026062011719e+00
-3.314057588577270508e+00 -1.020438690185546875e+02 -1.174987983703613281e+01
-1.572917819023132324e+00 -1.013004989624023438e+02 -1.394486999511718750e+01
2.002315074205398560e-01 -1.071633682250976562e+02 -1.463575172424316406e+01
4.682691991329193115e-01 -1.053919906616210938e+02 -1.584584045410156250e+01
4.003754615783691406e+00 -1.046376724243164062e+02 -1.642689132690429688e+01
3.062168359756469727e+00 -1.092567138671875000e+02 -1.501969909667968750e+01
3.316885709762573242e+00 -1.100721664428710938e+02 -1.400840187072753906e+01
6.554463863372802734e+00 -1.088854370117187500e+02 -1.616911697387695312e+01
2.697898864746093750e+00 -1.078634872436523438e+02 -1.628693389892578125e+01
5.628010749816894531e+00 -1.077869644165039062e+02 -1.643013381958007812e+01
-1.871589660644531250e+01 -7.251282501220703125e+01 -1.586173534393310547e+01
-2.197642326354980469e+01 -7.207253265380859375e+01 -2.107192420959472656e+01
-2.232596397399902344e+01 -6.914984893798828125e+01 -2.105311203002929688e+01
-1.901591110229492188e+01 -6.916689300537109375e+01 -1.549304771423339844e+01
-2.585829162597656250e+01 -7.316302490234375000e+01 -9.268247604370117188e+00
-2.193138122558593750e+01 -7.370088195800781250e+01 -9.538564682006835938e+00
-2.204254531860351562e+01 -6.924251556396484375e+01 -9.193499565124511719e+00
-2.593022537231445312e+01 -6.688961029052734375e+01 -8.853734970092773438e+00
-2.954728126525878906e+01 -7.481074523925781250e+01 -1.184217643737792969e+01
-3.041499710083007812e+01 -6.600685119628906250e+01 -1.112510490417480469e+01
-2.520185470581054688e+01 -6.093201828002929688e+01 -1.008592700958251953e+01
-2.164098930358886719e+01 -6.463842010498046875e+01 -9.652004241943359375e+00
-1.532539653778076172e+01 -5.100169754028320312e+01 -1.695205307006835938e+01
-2.055492782592773438e+01 -4.796619796752929688e+01 -1.632494735717773438e+01
-1.922600173950195312e+01 -7.320356750488281250e+01 -1.193357753753662109e+01
-1.951730728149414062e+01 -6.972547149658203125e+01 -1.155724906921386719e+01
-2.902449989318847656e+01 -6.652375793457031250e+01 -2.443183517456054688e+01
-2.588418006896972656e+01 -6.687622070312500000e+01 -2.425168800354003906e+01
-2.663315391540527344e+01 -6.936162567138671875e+01 -2.349452590942382812e+01
-2.971899986267089844e+01 -6.947463226318359375e+01 -2.316100883483886719e+01
-1.290130424499511719e+01 -5.366498565673828125e+01 -2.479765319824218750e+01
-1.727439308166503906e+01 -5.456453704833984375e+01 -3.005203247070312500e+01
-1.345926380157470703e+01 -5.292701339721679688e+01 -2.040592384338378906e+01
-3.210145187377929688e+01 -6.520570373535156250e+01 -2.215836715698242188e+01
-3.301625061035156250e+01 -6.155793380737304688e+01 -1.791578674316406250e+01
-2.936679649353027344e+01 -4.975420379638671875e+01 -2.619813919067382812e+01
-2.789806556701660156e+01 -5.252526092529296875e+01 -3.010714721679687500e+01
-1.945590019226074219e+01 -6.642403411865234375e+01 -1.196069049835205078e+01
-2.189222717285156250e+01 -6.697440338134765625e+01 -2.168221092224121094e+01
-1.890749740600585938e+01 -6.699330139160156250e+01 -1.629381942749023438e+01
-2.978705406188964844e+01 -5.972955322265625000e+01 -1.258834648132324219e+01
-3.329184341430664062e+01 -6.733675384521484375e+01 -1.603998565673828125e+01
-2.771854209899902344e+01 -8.783949279785156250e+01 -2.353674697875976562e+01
-3.211770629882812500e+01 -7.314754486083984375e+01 -2.037352752685546875e+01
-2.911063194274902344e+01 -7.303059387207031250e+01 -2.306414604187011719e+01
-2.611439895629882812e+01 -8.689554595947265625e+01 -2.578098487854003906e+01
-3.255006790161132812e+01 -6.934875488281250000e+01 -2.067670249938964844e+01
-3.248564910888671875e+01 -7.364977264404296875e+01 -1.607382583618164062e+01
-1.602554893493652344e+01 -8.626886749267578125e+01 -1.963656234741210938e+01
-1.946606445312500000e+01 -8.514653778076171875e+01 -2.373851585388183594e+01
-1.631341171264648438e+01 -8.613130187988281250e+01 -1.629541206359863281e+01
-2.632139968872070312e+01 -4.666324234008789062e+01 -1.984369087219238281e+01
-2.357961845397949219e+01 -5.401058959960937500e+01 -3.229250335693359375e+01
-2.047475814819335938e+01 -8.820208740234375000e+01 -1.386388874053955078e+01
-1.764996910095214844e+01 -8.697784423828125000e+01 -1.456324577331542969e+01
-2.619171524047851562e+01 -7.243370056152343750e+01 -2.328232955932617188e+01
-2.352977371215820312e+01 -8.571752929687500000e+01 -2.608922767639160156e+01
-2.799645996093750000e+01 -8.798201751708984375e+01 -1.975081825256347656e+01
-2.524796867370605469e+01 -8.798277282714843750e+01 -1.527000999450683594e+01
-2.606567001342773438e+01 -9.198374938964843750e+01 -2.222210693359375000e+01
-2.346836280822753906e+01 -9.241345214843750000e+01 -1.787310791015625000e+01
-1.890611648559570312e+01 -9.286427307128906250e+01 -1.648911094665527344e+01
-1.619119262695312500e+01 -9.160941314697265625e+01 -1.689907455444335938e+01
-1.490075111389160156e+01 -9.038555908203125000e+01 -1.836996841430664062e+01
-2.561725807189941406e+01 -9.143878173828125000e+01 -2.566403198242187500e+01
-2.407838058471679688e+01 -9.020298767089843750e+01 -2.746841049194335938e+01
-2.242666053771972656e+01 -8.743638610839843750e+01 -2.671432113647460938e+01
-2.337238121032714844e+01 -9.355833435058593750e+01 -2.814016342163085938e+01
-2.277910232543945312e+01 -9.628154754638671875e+01 -2.606567955017089844e+01
-1.152868270874023438e+01 -1.042928466796875000e+02 -2.977091598510742188e+01
-1.342964363098144531e+01 -1.012937927246093750e+02 -2.609132766723632812e+01
-1.418825054168701172e+01 -1.015523834228515625e+02 -2.631748580932617188e+01
-1.257532787322998047e+01 -1.046606903076171875e+02 -3.002350997924804688e+01
-1.694112014770507812e+01 -9.809429931640625000e+01 -2.172393608093261719e+01
-1.688773918151855469e+01 -9.923377990722656250e+01 -2.330258750915527344e+01
-1.964175033569335938e+01 -9.851523590087890625e+01 -2.399351882934570312e+01
-1.721036338806152344e+01 -1.018083038330078125e+02 -2.823640060424804688e+01
-1.999144935607910156e+01 -9.937945556640625000e+01 -3.072908592224121094e+01
-1.774198150634765625e+01 -1.021910171508789062e+02 -3.337995147705078125e+01
-1.525887489318847656e+01 -1.049174804687500000e+02 -3.157310104370117188e+01
-2.152695083618164062e+01 -9.763819885253906250e+01 -2.666207313537597656e+01
-1.230296325683593750e+01 -1.059210052490234375e+02 -3.191988182067871094e+01
-1.144365501403808594e+01 -1.056612091064453125e+02 -3.207478713989257812e+01
-2.074960136413574219e+01 -9.716490173339843750e+01 -2.229756736755371094e+01
-1.491330909729003906e+01 -9.615003967285156250e+01 -2.036646461486816406e+01
-1.187592887878417969e+01 -1.005365829467773438e+02 -2.603319740295410156e+01
-1.009609508514404297e+01 -1.034492950439453125e+02 -2.987154006958007812e+01
-1.007171535491943359e+01 -1.046103897094726562e+02 -3.242149353027343750e+01
-1.112610816955566406e+01 -9.923352050781250000e+01 -2.699936485290527344e+01
-9.701550483703613281e+00 -1.022037124633789062e+02 -3.050226402282714844e+01
-9.952377319335937500e+00 -1.035498275756835938e+02 -3.287216186523437500e+01
-1.167668342590332031e+01 -9.778874969482421875e+01 -2.858691787719726562e+01
-1.047858905792236328e+01 -1.006032257080078125e+02 -3.166866493225097656e+01
-1.459414672851562500e+01 -9.079689025878906250e+01 -2.184463882446289062e+01
-1.395094013214111328e+01 -9.362480163574218750e+01 -2.040958786010742188e+01
-1.048254489898681641e+01 -1.023138198852539062e+02 -3.333010482788085938e+01
-1.293306922912597656e+01 -1.062680892944335938e+02 -3.406893539428710938e+01
-1.135595417022705078e+01 -1.046489257812500000e+02 -3.507173156738281250e+01
-1.373959922790527344e+01 -1.062447280883789062e+02 -3.330437088012695312e+01
-2.057944297790527344e+01 -9.810411834716796875e+01 -3.127724838256835938e+01
-1.745539855957031250e+01 -1.014423675537109375e+02 -3.500072860717773438e+01
-2.020088958740234375e+01 -9.655497741699218750e+01 -3.222299575805664062e+01
-1.693127250671386719e+01 -1.001237335205078125e+02 -3.585417556762695312e+01
-1.529541015625000000e+01 -1.043880157470703125e+02 -3.601245498657226562e+01
-1.562753009796142578e+01 -1.045668716430664062e+02 -3.535881805419921875e+01
-1.542110633850097656e+01 -8.829187774658203125e+01 -2.075711250305175781e+01
-1.877210617065429688e+01 -8.716925048828125000e+01 -2.453491210937500000e+01
-1.747861862182617188e+01 -8.929310607910156250e+01 -2.528251075744628906e+01
-1.373851776123046875e+01 -9.635803222656250000e+01 -3.148836135864257812e+01
-2.091477584838867188e+01 -8.925569915771484375e+01 -2.754511642456054688e+01
-2.182760047912597656e+01 -9.232562255859375000e+01 -2.952304649353027344e+01
-1.877710533142089844e+01 -9.557765197753906250e+01 -3.304380035400390625e+01
-1.647534561157226562e+01 -9.565222930908203125e+01 -3.317424774169921875e+01
-1.597817420959472656e+01 -9.919849395751953125e+01 -3.588493347167968750e+01
-1.494058227539062500e+01 -9.837283325195312500e+01 -3.534790802001953125e+01
-1.218688201904296875e+01 -9.925095367431640625e+01 -3.386229324340820312e+01
-1.402565288543701172e+01 -1.016014862060546875e+02 -3.653406524658203125e+01
-1.467269897460937500e+01 -1.030928497314453125e+02 -3.650220489501953125e+01
-1.159877777099609375e+01 -1.033320693969726562e+02 -3.524586105346679688e+01
-1.345499134063720703e+01 -1.005720672607421875e+02 -3.584487533569335938e+01
-1.168040466308593750e+01 -1.017636489868164062e+02 -3.498171234130859375e+01
-2.071575546264648438e+01 -5.407547760009765625e+01 -3.217596435546875000e+01
-2.987088394165039062e+01 -7.651409912109375000e+01 -4.136040496826171875e+01
-3.045678710937500000e+01 -7.632662200927734375e+01 -4.544631195068359375e+01
-3.146830368041992188e+01 -7.322068023681640625e+01 -4.603206634521484375e+01
-3.029726028442382812e+01 -7.268910217285156250e+01 -4.194163894653320312e+01
-3.764984512329101562e+01 -7.554339599609375000e+01 -3.601151657104492188e+01
-3.403112030029296875e+01 -7.675978088378906250e+01 -3.610569381713867188e+01
-3.390819549560546875e+01 -7.235734558105468750e+01 -3.566283035278320312e+01
-3.749342727661132812e+01 -7.084000396728515625e+01 -3.554855728149414062e+01
-4.094922256469726562e+01 -7.573148345947265625e+01 -3.895973205566406250e+01
-4.149512481689453125e+01 -7.103701019287109375e+01 -3.863278198242187500e+01
-3.733611297607421875e+01 -6.756465148925781250e+01 -3.561806488037109375e+01
-3.325334930419921875e+01 -6.879698944091796875e+01 -3.578374481201171875e+01
-3.061942672729492188e+01 -5.149201583862304688e+01 -3.679767990112304688e+01
-3.410158538818359375e+01 -4.894461059570312500e+01 -3.820969772338867188e+01
-3.628197479248046875e+01 -5.227994537353515625e+01 -5.470344924926757812e+01
-3.183778762817382812e+01 -5.432255935668945312e+01 -5.435406494140625000e+01
-3.266469192504882812e+01 -5.948760223388671875e+01 -5.188290405273437500e+01
-3.631586837768554688e+01 -5.804158782958984375e+01 -5.269797897338867188e+01
-3.131000709533691406e+01 -7.692062377929687500e+01 -3.806631469726562500e+01
-3.106999588012695312e+01 -7.300150299072265625e+01 -3.817726898193359375e+01
-3.872867584228515625e+01 -7.069028472900390625e+01 -5.028734588623046875e+01
-3.523149108886718750e+01 -7.092700195312500000e+01 -4.968056106567382812e+01
-3.404809188842773438e+01 -7.374782562255859375e+01 -4.908054351806640625e+01
-3.761228179931640625e+01 -7.445533752441406250e+01 -5.039151000976562500e+01
-2.777058792114257812e+01 -5.588708496093750000e+01 -5.063822555541992188e+01
-2.507057189941406250e+01 -5.547948074340820312e+01 -4.624570846557617188e+01
-2.656668472290039062e+01 -5.730837249755859375e+01 -4.410993194580078125e+01
-2.944076538085937500e+01 -5.997674560546875000e+01 -4.860707855224609375e+01
-2.652105712890625000e+01 -5.518254852294921875e+01 -3.990296173095703125e+01
-4.140364456176757812e+01 -7.007995605468750000e+01 -4.876249694824218750e+01
-4.317208099365234375e+01 -6.841961669921875000e+01 -4.423347473144531250e+01
-4.097866439819335938e+01 -5.159660720825195312e+01 -4.872335052490234375e+01
-3.936206054687500000e+01 -5.439925003051757812e+01 -5.185878372192382812e+01
-3.082636451721191406e+01 -7.015226745605468750e+01 -3.820386505126953125e+01
-3.227173614501953125e+01 -7.071277618408203125e+01 -4.688530349731445312e+01
-3.045507240295410156e+01 -7.043446350097656250e+01 -4.273029708862304688e+01
-4.165888595581054688e+01 -6.746932983398437500e+01 -3.884900665283203125e+01
-4.305345153808593750e+01 -7.262298583984375000e+01 -4.421690750122070312e+01
-3.721901321411132812e+01 -8.554861450195312500e+01 -5.050204849243164062e+01
-4.022585678100585938e+01 -7.727044677734375000e+01 -4.917096710205078125e+01
-3.645592117309570312e+01 -7.745007324218750000e+01 -5.039035797119140625e+01
-3.494070434570312500e+01 -8.517378234863281250e+01 -5.129552459716796875e+01
-4.105702972412109375e+01 -7.385749816894531250e+01 -4.884777069091796875e+01
-4.228078460693359375e+01 -7.697239685058593750e+01 -4.456868743896484375e+01
-2.790013694763183594e+01 -8.494699859619140625e+01 -4.280603027343750000e+01
-2.925214195251464844e+01 -8.384768676757812500e+01 -4.767061996459960938e+01
-2.903348731994628906e+01 -8.559136962890625000e+01 -4.017023849487304688e+01
-3.905832672119140625e+01 -4.862688446044921875e+01 -4.212964630126953125e+01
-3.527745056152343750e+01 -8.632884979248046875e+01 -3.885121536254882812e+01
-3.142886734008789062e+01 -8.659324645996093750e+01 -3.878649139404296875e+01
-3.282860183715820312e+01 -7.684609222412109375e+01 -4.870977020263671875e+01
-3.211442184448242188e+01 -8.420325469970703125e+01 -5.052831268310546875e+01
-3.915717697143554688e+01 -8.598136901855468750e+01 -4.750339508056640625e+01
-3.876959609985351562e+01 -8.587577056884765625e+01 -4.201154708862304688e+01
-3.687722015380859375e+01 -9.036680603027343750e+01 -4.855123138427734375e+01
-3.655968475341796875e+01 -9.020689392089843750e+01 -4.324262237548828125e+01
-3.254997634887695312e+01 -9.063993072509765625e+01 -4.040300369262695312e+01
-2.976214599609375000e+01 -8.929570007324218750e+01 -3.995767211914062500e+01
-2.777104759216308594e+01 -8.806854248046875000e+01 -4.116374588012695312e+01
-3.516822052001953125e+01 -8.915629577636718750e+01 -5.146315383911132812e+01
-3.319669342041015625e+01 -8.804007720947265625e+01 -5.214872360229492188e+01
-3.093969726562500000e+01 -8.618858337402343750e+01 -5.112979888916015625e+01
-3.271527862548828125e+01 -9.275559997558593750e+01 -5.255314254760742188e+01
-3.295754241943359375e+01 -9.533556365966796875e+01 -4.984359741210937500e+01
-2.124573135375976562e+01 -9.957305908203125000e+01 -4.598206329345703125e+01
-2.396844291687011719e+01 -9.713545989990234375e+01 -4.443240737915039062e+01
-2.469071578979492188e+01 -9.773905944824218750e+01 -4.473784637451171875e+01
-2.176004028320312500e+01 -1.001354827880859375e+02 -4.606039428710937500e+01
-2.854068374633789062e+01 -9.464775085449218750e+01 -4.277959823608398438e+01
-2.837893104553222656e+01 -9.587009429931640625e+01 -4.381544876098632812e+01
-3.132211875915527344e+01 -9.588095855712890625e+01 -4.549181747436523438e+01
-2.698232078552246094e+01 -9.931888580322265625e+01 -4.714219284057617188e+01
-2.821922683715820312e+01 -9.925380706787109375e+01 -5.168571090698242188e+01
-2.501699447631835938e+01 -1.016700820922851562e+02 -5.200588989257812500e+01
-2.408683586120605469e+01 -1.017136077880859375e+02 -4.786710357666015625e+01
-3.152047157287597656e+01 -9.678282165527343750e+01 -4.920114517211914062e+01
-2.086167335510253906e+01 -1.020972442626953125e+02 -4.713651275634765625e+01
-2.009412193298339844e+01 -1.022692871093750000e+02 -4.752646636962890625e+01
-3.271486663818359375e+01 -9.457814025878906250e+01 -4.469437789916992188e+01
-2.679974365234375000e+01 -9.210707092285156250e+01 -4.181218719482421875e+01
-2.209177207946777344e+01 -9.609614562988281250e+01 -4.480719375610351562e+01
-1.958396148681640625e+01 -9.953124237060546875e+01 -4.692094802856445312e+01
-1.901309776306152344e+01 -1.021497955322265625e+02 -4.851355361938476562e+01
-2.159388351440429688e+01 -9.404862213134765625e+01 -4.554001617431640625e+01
-1.889827919006347656e+01 -9.833980560302734375e+01 -4.786479949951171875e+01
-1.843079757690429688e+01 -1.007347259521484375e+02 -4.945571899414062500e+01
-2.180671310424804688e+01 -9.223545837402343750e+01 -4.777997589111328125e+01
-1.892905807495117188e+01 -9.675038146972656250e+01 -4.948566436767578125e+01
-2.588515281677246094e+01 -8.796667480468750000e+01 -4.560301971435546875e+01
-2.579736900329589844e+01 -8.996003723144531250e+01 -4.288785552978515625e+01
-1.841214561462402344e+01 -9.927101135253906250e+01 -5.030279922485351562e+01
-2.112973594665527344e+01 -1.037048339843750000e+02 -4.966970825195312500e+01
-1.968272781372070312e+01 -1.025778350830078125e+02 -5.103733062744140625e+01
-2.201687240600585938e+01 -1.034872207641601562e+02 -4.903186035156250000e+01
-2.847108459472656250e+01 -9.849095916748046875e+01 -5.265052413940429688e+01
-2.455500793457031250e+01 -1.012981643676757812e+02 -5.324627685546875000e+01
-2.793144226074218750e+01 -9.695982360839843750e+01 -5.399263763427734375e+01
-2.366432189941406250e+01 -1.003655548095703125e+02 -5.417243576049804688e+01
-2.239443969726562500e+01 -1.028778457641601562e+02 -5.242821121215820312e+01
-2.324901962280273438e+01 -1.029788360595703125e+02 -5.108409881591796875e+01
-2.681307601928710938e+01 -8.677835845947265625e+01 -4.439908599853515625e+01
-2.829539489746093750e+01 -8.561285400390625000e+01 -4.809885406494140625e+01
-2.743109130859375000e+01 -8.711738586425781250e+01 -4.922263336181640625e+01
-2.305890083312988281e+01 -9.165291595458984375e+01 -5.103713989257812500e+01
-2.984690475463867188e+01 -8.808360290527343750e+01 -5.199886322021484375e+01
-3.162140464782714844e+01 -9.042121124267578125e+01 -5.299159622192382812e+01
-2.663733291625976562e+01 -9.514656829833984375e+01 -5.450269699096679688e+01
-2.485984420776367188e+01 -9.321926116943359375e+01 -5.377155303955078125e+01
-2.259527778625488281e+01 -9.924376678466796875e+01 -5.434527587890625000e+01
-2.131056594848632812e+01 -9.723801422119140625e+01 -5.385592651367187500e+01
-1.987230300903320312e+01 -9.612566375732421875e+01 -5.186024093627929688e+01
-2.058267021179199219e+01 -1.012636413574218750e+02 -5.296657562255859375e+01
-2.117190361022949219e+01 -1.022395706176757812e+02 -5.302497100830078125e+01
-1.930352401733398438e+01 -1.012451553344726562e+02 -5.122226715087890625e+01
-2.000222778320312500e+01 -9.961457061767578125e+01 -5.268622970581054688e+01
-1.910835266113281250e+01 -9.927095031738281250e+01 -5.163696289062500000e+01
-3.861791229248046875e+01 -5.165241241455078125e+01 -5.305681228637695312e+01
5.401775360107421875e+01 -7.569862365722656250e+01 -5.214550018310546875e+01
5.074841690063476562e+01 -7.533804321289062500e+01 -4.922192382812500000e+01
4.066556930541992188e+01 -8.820163726806640625e+01 -5.493960571289062500e+01
4.259759902954101562e+01 -8.360944366455078125e+01 -4.801575088500976562e+01
4.346027755737304688e+01 -8.984562683105468750e+01 -6.009578323364257812e+01
5.158615112304687500e+01 -8.610290527343750000e+01 -6.344533157348632812e+01
4.720951080322265625e+01 -8.817375183105468750e+01 -6.308298492431640625e+01
4.718915557861328125e+01 -7.832408142089843750e+01 -4.694782257080078125e+01
5.594171142578125000e+01 -7.763744354248046875e+01 -5.669145584106445312e+01
5.510031127929687500e+01 -8.162561035156250000e+01 -6.154828643798828125e+01
5.836677932739257812e+01 -8.422690582275390625e+01 -5.224880218505859375e+01
5.765638351440429688e+01 -8.806394195556640625e+01 -5.705979156494140625e+01
5.428250885009765625e+01 -9.252305603027343750e+01 -5.903770065307617188e+01
4.893106079101562500e+01 -9.402526092529296875e+01 -5.952266693115234375e+01
4.505694198608398438e+01 -9.434173583984375000e+01 -5.776594161987304688e+01
5.554217529296875000e+01 -8.165676879882812500e+01 -4.791509628295898438e+01
5.198128509521484375e+01 -8.131844329833984375e+01 -4.541210937500000000e+01
4.690464401245117188e+01 -8.356381988525390625e+01 -4.422653198242187500e+01
5.569110870361328125e+01 -8.828653717041015625e+01 -4.176902389526367188e+01
5.814825439453125000e+01 -9.806427001953125000e+01 -3.970667266845703125e+01
5.493830490112304688e+01 -1.152825546264648438e+02 -4.243355560302734375e+01
5.336287689208984375e+01 -1.107310180664062500e+02 -4.633245086669921875e+01
5.564572906494140625e+01 -1.103008270263671875e+02 -4.483602905273437500e+01
5.693505859375000000e+01 -1.147618026733398438e+02 -4.186281585693359375e+01
5.413848114013671875e+01 -1.057659454345703125e+02 -4.845170593261718750e+01
5.554304885864257812e+01 -1.065181121826171875e+02 -4.639787673950195312e+01
5.788694000244140625e+01 -1.029927520751953125e+02 -4.418522262573242188e+01
5.870733642578125000e+01 -1.074652709960937500e+02 -4.076769256591796875e+01
5.838615798950195312e+01 -1.009981918334960938e+02 -3.963000869750976562e+01
5.870996093750000000e+01 -1.035063323974609375e+02 -3.661941909790039062e+01
6.011295318603515625e+01 -1.111573944091796875e+02 -3.833024978637695312e+01
5.858964157104492188e+01 -1.159691162109375000e+02 -3.932046508789062500e+01
5.984886932373046875e+01 -1.143929672241210938e+02 -3.550717544555664062e+01
5.647900390625000000e+01 -1.169744033813476562e+02 -3.885583877563476562e+01
5.796157073974609375e+01 -1.016973266601562500e+02 -4.524742507934570312e+01
5.020957565307617188e+01 -1.024215469360351562e+02 -5.340000534057617188e+01
5.028052520751953125e+01 -1.096498413085937500e+02 -4.772451782226562500e+01
5.195413970947265625e+01 -1.145362548828125000e+02 -4.232548904418945312e+01
5.417921066284179688e+01 -1.161029434204101562e+02 -3.822706604003906250e+01
4.721751022338867188e+01 -1.084011077880859375e+02 -4.716196441650390625e+01
4.930241012573242188e+01 -1.124066162109375000e+02 -4.173363494873046875e+01
5.156458663940429688e+01 -1.137661895751953125e+02 -3.763763427734375000e+01
4.527476119995117188e+01 -1.061373672485351562e+02 -4.467288589477539062e+01
4.805629730224609375e+01 -1.101431884765625000e+02 -3.983574676513671875e+01
4.256112289428710938e+01 -9.545558929443359375e+01 -5.199156570434570312e+01
4.566927337646484375e+01 -9.925522613525390625e+01 -5.467006301879882812e+01
5.042204284667968750e+01 -1.118524627685546875e+02 -3.722788238525390625e+01
5.853551101684570312e+01 -1.151762542724609375e+02 -3.417888641357421875e+01
5.595991134643554688e+01 -1.141845092773437500e+02 -3.345359802246093750e+01
5.763323974609375000e+01 -1.007574615478515625e+02 -3.510960769653320312e+01
5.940823364257812500e+01 -1.072624282836914062e+02 -3.424621200561523438e+01
5.794108200073242188e+01 -1.057290267944335938e+02 -3.273180389404296875e+01
5.557025146484375000e+01 -9.802182006835937500e+01 -3.466169738769531250e+01
5.605171585083007812e+01 -1.047854156494140625e+02 -3.209400177001953125e+01
5.849430465698242188e+01 -1.106475830078125000e+02 -3.218177032470703125e+01
5.996044921875000000e+01 -1.106947021484375000e+02 -3.378081130981445312e+01
4.184560394287109375e+01 -9.210649108886718750e+01 -5.419976806640625000e+01
4.230140304565429688e+01 -8.764398956298828125e+01 -4.831508636474609375e+01
4.321715927124023438e+01 -9.071434020996093750e+01 -4.647022247314453125e+01
4.571918869018554688e+01 -1.012739410400390625e+02 -4.004926300048828125e+01
4.736037445068359375e+01 -8.761614990234375000e+01 -4.191125869750976562e+01
5.226912307739257812e+01 -8.714758300781250000e+01 -4.098839569091796875e+01
5.304154586791992188e+01 -9.727894592285156250e+01 -3.471053314208984375e+01
4.955704498291015625e+01 -9.799314880371093750e+01 -3.629936599731445312e+01
5.353385162353515625e+01 -1.045885238647460938e+02 -3.250841140747070312e+01
5.141672515869140625e+01 -1.051205825805664062e+02 -3.362981033325195312e+01
4.885576629638671875e+01 -1.077817153930664062e+02 -3.653973388671875000e+01
5.400339889526367188e+01 -1.093091278076171875e+02 -3.257617950439453125e+01
5.631983566284179688e+01 -1.098704223632812500e+02 -3.193743896484375000e+01
5.315050125122070312e+01 -1.126937866210937500e+02 -3.429906463623046875e+01
5.216819000244140625e+01 -1.085908660888671875e+02 -3.340974807739257812e+01
5.125860595703125000e+01 -1.107757110595703125e+02 -3.496259689331054688e+01
-3.214591979980468750e+01 -5.144483184814453125e+01 -5.765799713134765625e+01
-2.658230209350585938e+01 -5.294435882568359375e+01 -5.446339035034179688e+01
-2.789731788635253906e+01 -5.092200851440429688e+01 -5.974086761474609375e+01
-2.690363693237304688e+01 -4.909988784790039062e+01 -6.780705261230468750e+01
-2.947391891479492188e+01 -4.512961196899414062e+01 -7.672077941894531250e+01
