-3.957654571533203125e+01 -3.315139770507812500e+01 -5.405926513671875000e+01
-3.225720214843750000e+01 -2.672601699829101562e+01 -4.890671920776367188e+01
-9.814812660217285156e+00 -5.664658546447753906e+00 -9.681575012207031250e+01
-1.126723194122314453e+01 -5.273679256439208984e+00 -1.043872299194335938e+02
3.825548553466796875e+01 -5.541164016723632812e+01 1.671049118041992188e+01
3.660966491699218750e+01 -5.256203079223632812e+01 1.296288108825683594e+01
4.934798812866210938e+01 -4.218751907348632812e+01 -8.861312866210937500e+01
5.530131912231445312e+01 -5.479592895507812500e+01 -7.602641296386718750e+01
4.483693313598632812e+01 -3.385241699218750000e+01 -9.757553863525390625e+01
4.168858718872070312e+01 -2.698579978942871094e+01 -1.031515502929687500e+02
3.947723388671875000e+01 -2.290439033508300781e+01 -1.090354156494140625e+02
1.563781452178955078e+01 -5.416344451904296875e+01 -3.246835708618164062e+01
1.405671977996826172e+01 -5.012525558471679688e+01 -5.411650466918945312e+01
4.002797126770019531e+00 -4.497510147094726562e+01 -6.692142486572265625e+01
-2.619269752502441406e+01 -4.870639801025390625e+01 -7.340864562988281250e+01
-2.263568687438964844e+01 -4.720410919189453125e+01 -8.347451019287109375e+01
-1.441594409942626953e+01 -4.939359664916992188e+01 -7.784436035156250000e+01
-1.904510879516601562e+01 -4.951786041259765625e+01 -6.991728210449218750e+01
-3.690896224975585938e+01 -3.832285308837890625e+01 -6.645121002197265625e+01
-3.473268890380859375e+01 -4.554695510864257812e+01 -6.493526458740234375e+01
-3.666148376464843750e+01 -4.670573806762695312e+01 -5.579127883911132812e+01
-3.998653793334960938e+01 -4.092659759521484375e+01 -5.711232757568359375e+01
5.475716400146484375e+01 -5.640040969848632812e+01 -5.414061355590820312e+01
5.266748046875000000e+01 -4.625514602661132812e+01 -6.073093795776367188e+01
-1.629008865356445312e+01 -3.129303932189941406e+01 -1.066028289794921875e+02
-1.220460796356201172e+01 -3.045538711547851562e+01 -1.119837799072265625e+02
-9.140118598937988281e+00 -2.751182174682617188e+01 -1.174905242919921875e+02
6.147520542144775391e+00 -4.651737594604492188e+01 -8.876811218261718750e+01
9.105824470520019531e+00 -4.448418807983398438e+01 -1.006783676147460938e+02
1.278300094604492188e+01 -4.645858001708984375e+01 -9.960684967041015625e+01
8.211498260498046875e+00 -4.740518188476562500e+01 -8.774079895019531250e+01
1.826695060729980469e+01 -5.846033477783203125e+01 -8.018432617187500000e+01
2.236077499389648438e+01 -5.740940475463867188e+01 -9.221720886230468750e+01
2.496571731567382812e+01 -6.601723480224609375e+01 -7.247023010253906250e+01
1.742228889465332031e+01 -4.087930679321289062e+01 -1.095217056274414062e+02
1.233679294586181641e+01 -3.632035446166992188e+01 -1.158295898437500000e+02
2.021933746337890625e+01 -3.646399688720703125e+01 -1.158475952148437500e+02
3.573194980621337891e+00 -3.445249557495117188e+01 -1.174872283935546875e+02
-4.415823936462402344e+00 -3.137279701232910156e+01 -1.182081756591796875e+02
-1.009161567687988281e+01 -4.092615604400634766e+00 -1.111171417236328125e+02
2.792639732360839844e+01 -3.526829910278320312e+01 -1.147552490234375000e+02
3.941617202758789062e+01 -7.313039398193359375e+01 -6.611108398437500000e+01
4.246168136596679688e+01 -7.484920501708984375e+01 -5.914528656005859375e+01
3.863651275634765625e+01 -7.173370361328125000e+01 -5.435642242431640625e+01
3.545798110961914062e+01 -6.996610260009765625e+01 -5.952554321289062500e+01
3.615639495849609375e+01 -4.500071334838867188e+01 -2.400501632690429688e+01
3.449330520629882812e+01 -5.195431518554687500e+01 -2.683481216430664062e+01
3.454518508911132812e+01 -5.226865768432617188e+01 -3.485426330566406250e+01
-4.628624916076660156e+00 -4.672822952270507812e+01 -9.295715332031250000e+01
-1.478882122039794922e+01 -4.324343109130859375e+01 -9.724417114257812500e+01
1.917179870605468750e+01 -5.609476470947265625e+01 -2.292200851440429688e+01
3.919501495361328125e+01 -5.204283905029296875e+01 6.357249259948730469e+00
4.101257324218750000e+01 -5.616656494140625000e+01 3.876333713531494141e+00
3.717679595947265625e+01 -4.891195678710937500e+01 -1.172892856597900391e+01
3.488561248779296875e+01 -4.396286773681640625e+01 -8.170611381530761719e+00
1.744777488708496094e+01 -5.310328292846679688e+01 -1.206723308563232422e+01
2.035167312622070312e+01 -5.587905883789062500e+01 -1.666416549682617188e+01
2.135534286499023438e+01 -5.616301727294921875e+01 -1.254276847839355469e+01
1.908370971679687500e+01 -5.428385543823242188e+01 -7.401399135589599609e+00
-2.300522422790527344e+01 -4.492600250244140625e+01 -2.661640357971191406e+01
-2.157141494750976562e+01 -4.572259902954101562e+01 -3.405683135986328125e+01
1.488372039794921875e+01 -3.237185668945312500e+01 -2.164910507202148438e+01
2.591906356811523438e+01 -3.184584617614746094e+01 -2.346704101562500000e+01
2.708063316345214844e+01 -2.864271163940429688e+01 -3.299744796752929688e+01
-4.812528133392333984e+00 -4.636780929565429688e+01 -4.628154373168945312e+01
-8.221466064453125000e+00 -4.788665390014648438e+01 -3.609525299072265625e+01
-1.275762176513671875e+01 -4.702207565307617188e+01 -3.751428985595703125e+01
1.232951164245605469e+01 -5.392522430419921875e+01 -2.891173171997070312e+01
1.368674468994140625e+01 -5.439633941650390625e+01 -2.046415519714355469e+01
9.398315429687500000e+00 -5.366657638549804688e+01 -2.409775924682617188e+01
8.377965927124023438e+00 -5.253493118286132812e+01 -3.138695144653320312e+01
-3.010741233825683594e+01 -2.512486648559570312e+01 -7.461061859130859375e+01
-3.242348480224609375e+01 -3.575484466552734375e+01 -7.798287200927734375e+01
4.148885345458984375e+01 -6.518341064453125000e+01 8.766326904296875000e+00
4.078207397460937500e+01 -6.295241546630859375e+01 5.315745353698730469e+00
-2.219897031784057617e+00 -4.472930145263671875e+01 -5.765647506713867188e+01
2.932683753967285156e+01 -2.497081756591796875e+01 -4.579983520507812500e+01
-7.474506497383117676e-01 -4.479364776611328125e+01 -6.867378234863281250e+01
-2.594461441040039062e+01 -2.989246177673339844e+01 -3.404378128051757812e+01
-3.118031692504882812e+01 -3.419752120971679688e+01 -3.304956817626953125e+01
-3.067160606384277344e+01 -3.554009246826171875e+01 -3.070361900329589844e+01
-2.849170303344726562e+01 -3.109755897521972656e+01 -2.827946090698242188e+01
2.251684951782226562e+01 -5.923645782470703125e+01 6.862670898437500000e+00
2.475968360900878906e+01 -6.337926101684570312e+01 4.565854072570800781e+00
2.627356529235839844e+01 -6.524752807617187500e+01 8.770893096923828125e+00
2.407422256469726562e+01 -6.108061599731445312e+01 1.174534511566162109e+01
2.508043479919433594e+01 -5.711517333984375000e+01 -1.984119415283203125e+01
3.056828689575195312e+01 -5.572917938232421875e+01 -2.180163574218750000e+01
3.112858200073242188e+01 -5.723345947265625000e+01 -1.528933429718017578e+01
2.590010452270507812e+01 -5.786881256103515625e+01 -1.395352172851562500e+01
3.517748260498046875e+01 -5.216558074951171875e+01 -1.980442428588867188e+01
3.567156219482421875e+01 -5.391564941406250000e+01 -1.461952972412109375e+01
2.380631828308105469e+01 -5.407866668701171875e+01 9.162075042724609375e+00
2.904620361328125000e+01 -4.963540267944335938e+01 9.984560012817382812e+00
2.299390029907226562e+01 -4.372279739379882812e+01 -4.001212596893310547e+00
1.966137886047363281e+01 -4.996261215209960938e+01 -3.216004133224487305e+00
-4.350521564483642578e+00 -9.859750747680664062e+00 -7.249869537353515625e+01
-1.413851642608642578e+01 -1.190331840515136719e+01 -7.623122406005859375e+01
-1.804778289794921875e+01 -1.737475585937500000e+01 -6.364804077148437500e+01
-2.217495727539062500e+01 -2.181739234924316406e+01 -5.181765747070312500e+01
-2.566802406311035156e+01 -2.721268081665039062e+01 -4.073717498779296875e+01
-1.559117603302001953e+01 -2.360981178283691406e+01 -3.635774612426757812e+01
-2.433821296691894531e+01 -1.936338806152343750e+01 -6.796618652343750000e+01
1.361983013153076172e+01 -4.359671783447265625e+01 -1.324185371398925781e+01
1.867966461181640625e+01 -3.829146194458007812e+01 -1.426642036437988281e+01
1.386898040771484375e+01 -3.651517868041992188e+01 -1.649556350708007812e+01
-7.822659492492675781e+00 -4.660594558715820312e+01 -7.073435974121093750e+01
3.989727020263671875e+01 -6.047400665283203125e+01 1.382639169692993164e+00
3.145799827575683594e+01 -8.023077964782714844e+00 -9.675626373291015625e+01
2.047183609008789062e+01 -2.626786470413208008e+00 -9.623643493652343750e+01
2.176832199096679688e+01 -5.804986000061035156e+00 -8.889340972900390625e+01
3.351939773559570312e+01 -1.235552215576171875e+01 -8.961268615722656250e+01
3.040434646606445312e+01 -6.590270996093750000e+01 1.139622449874877930e+00
3.598910522460937500e+01 -6.478202056884765625e+01 -4.864672571420669556e-02
-2.763283920288085938e+01 -4.548003768920898438e+01 -3.599790573120117188e+01
-2.746712112426757812e+01 -4.338942337036132812e+01 -2.964342308044433594e+01
-3.000029945373535156e+01 -4.142221450805664062e+01 -2.955333328247070312e+01
-3.270175933837890625e+01 -4.588627243041992188e+01 -3.302561187744140625e+01
-1.866580581665039062e+01 -1.354446697235107422e+01 -7.970032501220703125e+01
-4.269858932495117188e+01 -3.524684906005859375e+01 -4.831293487548828125e+01
-3.648064804077148438e+01 -2.944190025329589844e+01 -4.378878021240234375e+01
-1.015412902832031250e+01 -7.502954959869384766e+00 -8.759812164306640625e+01
-1.413172483444213867e+00 -5.457435607910156250e+00 -8.429134368896484375e+01
2.480999529361724854e-01 -2.575767993927001953e+00 -9.326332092285156250e+01
-4.991477012634277344e+00 -2.729679489135742188e+01 -2.455229187011718750e+01
2.919565200805664062e+00 -1.018140411376953125e+01 -6.805917358398437500e+01
5.618679523468017578e+00 -5.692826271057128906e+00 -8.114451599121093750e+01
7.670457363128662109e+00 -2.349562883377075195e+00 -9.171749114990234375e+01
8.164265632629394531e+00 5.165972709655761719e-01 -9.915273284912109375e+01
1.264549791812896729e-01 -1.818737238645553589e-01 -1.003054656982421875e+02
3.445387268066406250e+01 -4.979337310791015625e+01 9.056680679321289062e+00
3.077228736877441406e+01 -5.234132003784179688e+01 1.491489887237548828e+01
-3.733178973197937012e-01 1.605694532394409180e+00 -1.081783828735351562e+02
8.228509902954101562e+00 2.768718242645263672e+00 -1.062469100952148438e+02
1.424530982971191406e+01 -7.284597873687744141e+00 -7.840434265136718750e+01
2.406973648071289062e+01 -1.096016120910644531e+01 -7.553661346435546875e+01
1.159161949157714844e+01 -1.158415031433105469e+01 -6.569579315185546875e+01
2.115518188476562500e+01 -1.520654010772705078e+01 -6.189522552490234375e+01
5.358694076538085938e+00 -2.588562011718750000e+01 -2.629369163513183594e+01
3.183809280395507812e+01 -6.369673919677734375e+01 2.772107505798339844e+01
2.781971359252929688e+01 -5.860696411132812500e+01 1.893184852600097656e+01
2.585838890075683594e+01 -6.318791961669921875e+01 1.670694923400878906e+01
2.952512741088867188e+01 -6.700157165527343750e+01 2.655710792541503906e+01
2.566475868225097656e+01 -5.622097015380859375e+01 1.409773254394531250e+01
3.229203414916992188e+01 -5.510176467895507812e+01 1.875531578063964844e+01
3.260833358764648438e+01 -2.129544067382812500e+01 -5.997544479370117188e+01
1.018935298919677734e+01 -5.232152557373046875e+01 -1.635502433776855469e+01
3.683951568603515625e+01 -1.949145889282226562e+01 -7.564882659912109375e+01
4.327530288696289062e+01 -3.246313476562500000e+01 -5.457373046875000000e+01
4.668796157836914062e+01 -3.242074966430664062e+01 -6.723448181152343750e+01
4.080274200439453125e+01 -2.109243965148925781e+01 -9.229056549072265625e+01
4.645308685302734375e+01 -3.113358688354492188e+01 -8.262922668457031250e+01
3.747285842895507812e+01 -1.360524559020996094e+01 -1.054467773437500000e+02
3.848964309692382812e+01 -1.645207214355468750e+01 -9.838703918457031250e+01
5.284581375122070312e+01 -4.280497741699218750e+01 -7.342689514160156250e+01
3.799540328979492188e+01 -7.287277984619140625e+01 1.772576713562011719e+01
3.264615249633789062e+01 -7.285655975341796875e+01 1.943614578247070312e+01
3.085607337951660156e+01 -5.198978424072265625e+00 -1.036784057617187500e+02
3.078992080688476562e+01 -6.902969360351562500e+01 -6.502758026123046875e+01
-3.514137983322143555e+00 -4.705025863647460938e+01 -8.111592102050781250e+01
1.357775449752807617e+00 -4.566635131835937500e+01 -7.896957397460937500e+01
-1.972789955139160156e+01 -4.595866012573242188e+01 -8.932463073730468750e+01
-9.846357345581054688e+00 -4.872524261474609375e+01 -8.475013732910156250e+01
4.244940948486328125e+01 -7.054511260986328125e+01 1.783057022094726562e+01
-8.762662887573242188e+00 -4.440872955322265625e+01 -1.230154991149902344e+01
-1.475832176208496094e+01 -4.281214141845703125e+01 -1.415994739532470703e+01
4.727286529541015625e+01 -7.246486663818359375e+01 -7.031964111328125000e+01
4.929691314697265625e+01 -7.448208618164062500e+01 -6.322833251953125000e+01
5.824982833862304688e+01 -6.661786651611328125e+01 -6.021042633056640625e+01
5.518049240112304688e+01 -7.168959045410156250e+01 -6.259601593017578125e+01
5.423266601562500000e+01 -6.774311828613281250e+01 -7.099923706054687500e+01
5.767275238037109375e+01 -6.139778900146484375e+01 -6.882023620605468750e+01
4.120511531829833984e+00 -4.621344757080078125e+01 -8.935794830322265625e+01
6.325111985206604004e-01 -4.642792510986328125e+01 -9.004887390136718750e+01
-2.598174667358398438e+01 -2.278857803344726562e+01 -8.561492919921875000e+01
-2.709593582153320312e+01 -3.481929016113281250e+01 -8.844178771972656250e+01
3.622518920898437500e+01 -4.631532669067382812e+01 -1.756644058227539062e+01
3.279762649536132812e+01 -3.772937774658203125e+01 -2.186275100708007812e+01
3.293091201782226562e+01 -4.040593719482421875e+01 -1.492326354980468750e+01
2.883465003967285156e+01 -4.107633209228515625e+01 -6.731482505798339844e+00
1.207872581481933594e+01 -4.910530853271484375e+01 -1.288196849822998047e+01
1.582089805603027344e+01 -4.757654953002929688e+01 -1.042676162719726562e+01
1.698505592346191406e+01 -5.149225616455078125e+01 -9.588764953613281250e+01
1.216954994201660156e+01 -5.103120040893554688e+01 -8.503742980957031250e+01
3.587943267822265625e+01 -6.647041320800781250e+01 -5.370491409301757812e+01
3.866392898559570312e+01 -6.508473205566406250e+01 -4.939536285400390625e+01
2.062133312225341797e+00 -5.011503219604492188e+01 -3.477969741821289062e+01
-2.749607563018798828e+00 -3.190911865234375000e+01 -1.490867424011230469e+01
5.505770206451416016e+00 -2.999662399291992188e+01 -1.622035789489746094e+01
1.786309242248535156e+00 -5.120039749145507812e+01 -2.589472389221191406e+01
4.410747909545898438e+01 -6.455973052978515625e+01 2.230420684814453125e+01
4.429292297363281250e+01 -6.806630706787109375e+01 1.953902626037597656e+01
2.676802635192871094e+01 -3.717063140869140625e+01 -1.415337657928466797e+01
-2.046922683715820312e+01 -4.729969024658203125e+01 -4.201485443115234375e+01
-1.045276355743408203e+01 -2.927678489685058594e+01 -2.096091842651367188e+01
-3.402425765991210938e+00 -3.785726165771484375e+01 -1.221164131164550781e+01
-4.145616531372070312e+01 -4.265279388427734375e+01 -5.157975387573242188e+01
2.040907859802246094e+01 1.890265941619873047e-01 -1.038068466186523438e+02
2.757947349548339844e+01 -6.738758850097656250e+01 1.399628734588623047e+01
2.927033615112304688e+01 -7.085252380371093750e+01 2.216395759582519531e+01
3.528644561767578125e+01 -6.123951339721679688e+01 2.713630676269531250e+01
4.040301513671875000e+01 -6.089432525634765625e+01 2.472153091430664062e+01
-2.140068817138671875e+01 -3.426395416259765625e+01 -9.783158111572265625e+01
4.218657493591308594e+00 -4.537012481689453125e+01 -7.712892913818359375e+01
5.632734298706054688e+01 -5.168361282348632812e+01 -6.647714996337890625e+01
5.784867095947265625e+01 -6.040637207031250000e+01 -5.757600021362304688e+01
1.380308151245117188e+00 -5.087951278686523438e+01 -1.891835403442382812e+01
-3.119918251037597656e+01 -3.100436782836914062e+01 -3.776388549804687500e+01
-1.902266883850097656e+01 -2.598478317260742188e+01 -2.859508323669433594e+01
-2.275011062622070312e+01 -2.724193954467773438e+01 -2.269245338439941406e+01
-1.834096336364746094e+01 -2.944572448730468750e+01 -1.729253005981445312e+01
-1.796369743347167969e+01 -3.579143524169921875e+01 -1.263655853271484375e+01
3.606186676025390625e+01 -6.446966552734375000e+01 3.114382362365722656e+01
4.123656082153320312e+01 -6.403041839599609375e+01 2.901698303222656250e+01
4.494986724853515625e+01 -6.769268035888671875e+01 2.681710433959960938e+01
4.515201568603515625e+01 -7.072493743896484375e+01 2.415184402465820312e+01
4.272778701782226562e+01 -7.281355285644531250e+01 2.130393791198730469e+01
3.262257385253906250e+01 -6.698683166503906250e+01 3.160012245178222656e+01
3.054550170898437500e+01 -7.001647949218750000e+01 3.038622093200683594e+01
3.002750015258789062e+01 -7.268965148925781250e+01 2.544051551818847656e+01
3.276985549926757812e+01 -7.060768127441406250e+01 3.492078399658203125e+01
3.737424468994140625e+01 -7.050035095214843750e+01 3.710294342041015625e+01
4.610138702392578125e+01 -7.982286834716796875e+01 3.495859527587890625e+01
4.593243408203125000e+01 -7.411656951904296875e+01 3.325452423095703125e+01
4.535037994384765625e+01 -7.517462158203125000e+01 3.559305572509765625e+01
4.557896804809570312e+01 -7.974790191650390625e+01 3.794939422607421875e+01
4.489455795288085938e+01 -8.355928802490234375e+01 4.095374298095703125e+01
4.530224609375000000e+01 -8.413508605957031250e+01 3.801910400390625000e+01
4.269333267211914062e+01 -7.164030456542968750e+01 3.621492767333984375e+01
4.263105392456054688e+01 -7.740065765380859375e+01 3.992869949340820312e+01
3.839491271972656250e+01 -7.681696319580078125e+01 4.106809616088867188e+01
3.863415908813476562e+01 -8.129261779785156250e+01 4.387693023681640625e+01
4.224176025390625000e+01 -8.170137786865234375e+01 4.310107421875000000e+01
3.904625701904296875e+01 -7.278082275390625000e+01 3.849020385742187500e+01
4.243002700805664062e+01 -6.969153594970703125e+01 3.483045196533203125e+01
4.366605758666992188e+01 -8.692623138427734375e+01 4.106882858276367188e+01
4.393119812011718750e+01 -8.522749328613281250e+01 4.266110992431640625e+01
4.150217819213867188e+01 -8.417231750488281250e+01 4.443956375122070312e+01
3.917789459228515625e+01 -8.716035461425781250e+01 4.399988555908203125e+01
4.563489913940429688e+01 -7.443768310546875000e+01 2.777990150451660156e+01
4.530294799804687500e+01 -8.100239562988281250e+01 3.308552932739257812e+01
4.376616668701171875e+01 -8.556047058105468750e+01 3.622969818115234375e+01
4.196626663208007812e+01 -8.801258087158203125e+01 3.949618530273437500e+01
4.242923736572265625e+01 -8.321378326416015625e+01 3.197468566894531250e+01
4.130167007446289062e+01 -8.632243347167968750e+01 3.513550567626953125e+01
3.948382568359375000e+01 -8.792491912841796875e+01 3.790931320190429688e+01
3.856295776367187500e+01 -8.423139953613281250e+01 3.195691299438476562e+01
3.816046905517578125e+01 -8.656290435791015625e+01 3.505504226684570312e+01
3.925587081909179688e+01 -7.611930847167968750e+01 2.339028930664062500e+01
4.302678680419921875e+01 -7.480253601074218750e+01 2.395664978027343750e+01
3.791689682006835938e+01 -8.760544586181640625e+01 3.707365798950195312e+01
3.774376678466796875e+01 -8.863761901855468750e+01 4.361855316162109375e+01
3.482653045654296875e+01 -7.573753356933593750e+01 3.989678192138671875e+01
3.533464813232421875e+01 -8.173599243164062500e+01 4.339635467529296875e+01
3.264305496215820312e+01 -7.645886230468750000e+01 3.875342941284179688e+01
3.343143463134765625e+01 -8.233361816406250000e+01 4.206683731079101562e+01
3.606586837768554688e+01 -8.517595672607421875e+01 4.475598144531250000e+01
3.853762054443359375e+01 -8.368110656738281250e+01 4.494879150390625000e+01
3.813433837890625000e+01 -7.410982513427734375e+01 2.014266014099121094e+01
3.252169036865234375e+01 -7.409352111816406250e+01 2.203101730346679688e+01
3.353040313720703125e+01 -7.607790374755859375e+01 2.465056991577148438e+01
3.439357376098632812e+01 -8.349906921386718750e+01 3.295952987670898438e+01
3.067936706542968750e+01 -7.492442321777343750e+01 2.792148971557617188e+01
3.064687728881835938e+01 -7.347416687011718750e+01 3.322972869873046875e+01
3.120567893981933594e+01 -7.872795867919921875e+01 3.742509841918945312e+01
3.135762023925781250e+01 -8.101150512695312500e+01 3.524654006958007812e+01
3.226574707031250000e+01 -8.309883117675781250e+01 3.993928527832031250e+01
3.260178375244140625e+01 -8.426937103271484375e+01 3.783512115478515625e+01
3.495016860961914062e+01 -8.593653869628906250e+01 3.601636505126953125e+01
3.383425140380859375e+01 -8.627833557128906250e+01 4.121119308471679688e+01
3.456241607666015625e+01 -8.594094085693359375e+01 4.371155548095703125e+01
3.683520126342773438e+01 -8.827036285400390625e+01 4.070823287963867188e+01
3.380611801147460938e+01 -8.624042510986328125e+01 3.942380142211914062e+01
3.603451538085937500e+01 -8.756007385253906250e+01 3.849179840087890625e+01
6.167190074920654297e+00 -5.710166168212890625e+01 1.969688415527343750e+01
-2.916404306888580322e-01 -5.730277633666992188e+01 1.988333702087402344e+01
7.250768542289733887e-01 -5.546795654296875000e+01 1.515962982177734375e+01
6.145714759826660156e+00 -5.511539459228515625e+01 1.541319465637207031e+01
1.010581779479980469e+01 -4.671230697631835938e+01 2.476650428771972656e+01
1.127183532714843750e+01 -5.133142089843750000e+01 2.265708732604980469e+01
1.159536552429199219e+01 -4.875621414184570312e+01 1.897896385192871094e+01
1.010797595977783203e+01 -4.338307571411132812e+01 2.071617126464843750e+01
6.041522026062011719e+00 -4.349003982543945312e+01 2.594531822204589844e+01
5.775101661682128906e+00 -4.007802200317382812e+01 2.117769432067871094e+01
1.059614849090576172e+01 -4.122535324096679688e+01 1.581800842285156250e+01
1.189205551147460938e+01 -4.686040496826171875e+01 1.401998901367187500e+01
1.220164489746093750e+01 -4.330929565429687500e+01 -7.706389427185058594e+00
1.124258804321289062e+01 -3.683624267578125000e+01 -6.245024204254150391e+00
-3.475692033767700195e+00 -4.792618942260742188e+01 -9.478990554809570312e+00
-5.011498451232910156e+00 -4.560381698608398438e+01 -7.106517791748046875e+00
9.468915939331054688e+00 -5.499201583862304688e+01 2.088769531250000000e+01
9.987278938293457031e+00 -5.266516113281250000e+01 1.720592308044433594e+01
-5.225975990295410156e+00 -4.901322174072265625e+01 1.318512916564941406e+01
-2.572065830230712891e+00 -5.272996139526367188e+01 1.154528236389160156e+01
-3.349182844161987305e+00 -5.355812454223632812e+01 1.650779533386230469e+01
-5.741629600524902344e+00 -4.913568878173828125e+01 1.854840469360351562e+01
7.138066768646240234e+00 -4.966753768920898438e+01 -1.090122413635253906e+01
1.446943879127502441e+00 -4.995858764648437500e+01 -1.100388336181640625e+01
1.002691459655761719e+01 -4.756449508666992188e+01 -9.097567558288574219e+00
-5.217503547668457031e+00 -4.354884338378906250e+01 1.525845336914062500e+01
-1.570526719093322754e+00 -3.859253692626953125e+01 1.659202766418457031e+01
-1.402182221412658691e+00 -3.383013916015625000e+01 -4.088322639465332031e+00
-5.825820922851562500e+00 -3.882587432861328125e+01 -4.496181488037109375e+00
1.017602062225341797e+01 -5.132606124877929688e+01 1.248602104187011719e+01
2.055717945098876953e+00 -5.479692459106445312e+01 1.066948795318603516e+01
6.470503807067871094e+00 -5.441231155395507812e+01 1.091785526275634766e+01
5.400746822357177734e+00 -3.768353271484375000e+01 1.643429756164550781e+01
-1.022894978523254395e+00 -4.080007171630859375e+01 2.191234970092773438e+01
-3.958586215972900391e+00 -5.374333953857421875e+01 3.551148986816406250e+01
-4.652558326721191406e+00 -4.711040878295898438e+01 2.522227859497070312e+01
-5.832345485687255859e+00 -5.126089477539062500e+01 2.338006591796875000e+01
-5.803724765777587891e+00 -5.777487945556640625e+01 3.430084228515625000e+01
-4.863734722137451172e+00 -4.456523513793945312e+01 2.077917671203613281e+01
-4.754648208618164062e-01 -4.364961624145507812e+01 2.620995521545410156e+01
3.878017425537109375e+00 -6.544136047363281250e+01 3.138925170898437500e+01
-2.071430921554565430e+00 -6.485346984863281250e+01 3.173592567443847656e+01
7.894198417663574219e+00 -6.357382965087890625e+01 3.249991989135742188e+01
5.543344974517822266e+00 -3.262009429931640625e+01 -4.821808338165283203e+00
9.705186843872070312e+00 -5.467377853393554688e+01 3.476881790161132812e+01
1.002173900604248047e+01 -6.031483840942382812e+01 3.333446121215820312e+01
-4.218802452087402344e+00 -5.518560791015625000e+01 2.127890396118164062e+01
-5.275385856628417969e+00 -6.187058258056640625e+01 3.325888442993164062e+01
-5.033943653106689453e-01 -5.122010040283203125e+01 3.610353469848632812e+01
5.503720283508300781e+00 -5.028889465332031250e+01 3.524297332763671875e+01
-2.313030064105987549e-01 -5.454967117309570312e+01 4.050563049316406250e+01
5.409123420715332031e+00 -5.424285125732421875e+01 3.994533157348632812e+01
9.737045288085937500e+00 -5.868732452392578125e+01 3.884642410278320312e+01
9.758952140808105469e+00 -6.335917282104492188e+01 3.679537200927734375e+01
7.510226249694824219e+00 -6.604148864746093750e+01 3.514817428588867188e+01
-3.718329191207885742e+00 -5.687865447998046875e+01 4.030612945556640625e+01
-5.784409046173095703e+00 -6.054790496826171875e+01 3.904294586181640625e+01
-5.136027812957763672e+00 -6.398741531372070312e+01 3.576777648925781250e+01
-3.907534837722778320e+00 -6.188652801513671875e+01 4.535271835327148438e+01
-1.978201866149902344e-01 -6.058232498168945312e+01 4.678852844238281250e+01
9.908432960510253906e+00 -7.453165435791015625e+01 5.076735687255859375e+01
1.021797180175781250e+01 -7.022641754150390625e+01 4.722373580932617188e+01
9.373224258422851562e+00 -6.891574096679687500e+01 4.910591888427734375e+01
9.579010009765625000e+00 -7.294688415527343750e+01 5.248754119873046875e+01
9.734197616577148438e+00 -6.465711975097656250e+01 4.485468673706054688e+01
8.703872680664062500e+00 -6.503170013427734375e+01 4.701024246215820312e+01
5.395894527435302734e+00 -6.221393585205078125e+01 4.763872528076171875e+01
5.766303062438964844e+00 -6.694464111328125000e+01 5.138574218750000000e+01
7.105306386947631836e-01 -6.586590576171875000e+01 5.155001831054687500e+01
1.276067018508911133e+00 -6.984989166259765625e+01 5.552612304687500000e+01
6.128377437591552734e+00 -7.085324859619140625e+01 5.540566253662109375e+01
1.922830939292907715e+00 -6.257046508789062500e+01 4.888416671752929688e+01
8.915539741516113281e+00 -7.491954040527343750e+01 5.489186859130859375e+01
8.501422882080078125e+00 -7.718821716308593750e+01 5.491446685791015625e+01
5.540684700012207031e+00 -6.002611160278320312e+01 4.557649993896484375e+01
9.984021186828613281e+00 -6.578652191162109375e+01 4.004218673706054688e+01
9.665019035339355469e+00 -7.231816101074218750e+01 4.546928787231445312e+01
8.601140975952148438e+00 -7.659786224365234375e+01 4.971297073364257812e+01
6.460899353027343750e+00 -7.936049652099609375e+01 5.460337448120117188e+01
7.006602287292480469e+00 -7.485804748535156250e+01 4.434910964965820312e+01
6.415543556213378906e+00 -7.806229400634765625e+01 4.895335769653320312e+01
4.477326393127441406e+00 -7.966502380371093750e+01 5.302701950073242188e+01
2.898640155792236328e+00 -7.613508605957031250e+01 4.379888153076171875e+01
2.751726150512695312e+00 -7.881887054443359375e+01 4.861463165283203125e+01
3.055592298507690430e+00 -6.914402770996093750e+01 3.579506683349609375e+01
7.334780216217041016e+00 -6.816223907470703125e+01 3.721388626098632812e+01
2.818047523498535156e+00 -7.943095397949218750e+01 5.143596267700195312e+01
5.190146446228027344e+00 -7.783763122558593750e+01 5.807973098754882812e+01
3.394188404083251953e+00 -8.093644714355468750e+01 5.678949737548828125e+01
6.215643882751464844e+00 -7.446919250488281250e+01 5.759897994995117188e+01
-1.487816095352172852e+00 -6.619184112548828125e+01 5.108042526245117188e+01
-9.006103277206420898e-01 -7.095217132568359375e+01 5.534141921997070312e+01
-3.588848590850830078e+00 -6.745861816406250000e+01 5.014966201782226562e+01
-2.416565895080566406e+00 -7.281339263916015625e+01 5.483301544189453125e+01
-2.048367261886596680e-02 -7.486789703369140625e+01 5.743505096435546875e+01
1.443175077438354492e+00 -7.390067291259765625e+01 5.809942626953125000e+01
3.346145629882812500e+00 -6.732422637939453125e+01 3.368818283081054688e+01
-2.106793165206909180e+00 -6.634684753417968750e+01 3.395447540283203125e+01
-2.014205455780029297e+00 -6.795228576660156250e+01 3.602308654785156250e+01
-1.644521117210388184e+00 -7.496897888183593750e+01 4.436287689208984375e+01
-5.163442611694335938e+00 -6.559164428710937500e+01 3.819890213012695312e+01
-5.647273540496826172e+00 -6.390429687500000000e+01 4.300385284423828125e+01
-4.772268295288085938e+00 -6.901101684570312500e+01 4.838536453247070312e+01
-4.342644691467285156e+00 -7.225541687011718750e+01 4.645188140869140625e+01
-3.272517442703247070e+00 -7.389350128173828125e+01 5.347722244262695312e+01
-3.556747913360595703e+00 -7.515604400634765625e+01 5.062826156616210938e+01
-8.984182476997375488e-01 -7.768891143798828125e+01 4.878306198120117188e+01
-1.354230880737304688e+00 -7.603316497802734375e+01 5.468296051025390625e+01
-7.000352144241333008e-01 -7.530372619628906250e+01 5.603073120117187500e+01
1.772671461105346680e+00 -7.987226867675781250e+01 5.403605270385742188e+01
-1.942128539085388184e+00 -7.714038085937500000e+01 5.312523651123046875e+01
6.550089120864868164e-01 -7.913610839843750000e+01 5.250350189208984375e+01
-3.707082366943359375e+01 -4.772500610351562500e+01 3.792515993118286133e+00
-4.067289733886718750e+01 -4.874454498291015625e+01 -5.625678300857543945e-01
-3.795317840576171875e+01 -4.754708099365234375e+01 -3.564280033111572266e+00
-3.400772476196289062e+01 -4.592447662353515625e+01 1.233050227165222168e+00
-3.952558135986328125e+01 -3.742613220214843750e+01 7.894277095794677734e+00
-3.715717697143554688e+01 -4.106679534912109375e+01 8.492101669311523438e+00
-3.450180435180664062e+01 -3.939049530029296875e+01 5.892612934112548828e+00
-3.595198822021484375e+01 -3.494087600708007812e+01 4.226773738861083984e+00
-4.436069869995117188e+01 -3.667978286743164062e+01 6.563134193420410156e+00
-3.971665954589843750e+01 -3.259451293945312500e+01 1.249347448348999023e+00
-3.243222808837890625e+01 -3.324637222290039062e+01 -1.434303820133209229e-01
-3.171266555786132812e+01 -3.797059249877929688e+01 2.843564748764038086e+00
-2.071065902709960938e+01 -3.663703155517578125e+01 -9.897115707397460938e+00
-2.304233169555664062e+01 -3.072833633422851562e+01 -1.188758373260498047e+01
-3.615758514404296875e+01 -4.476083755493164062e+01 6.878555297851562500e+00
-3.380979156494140625e+01 -4.328848266601562500e+01 4.698011398315429688e+00
-4.200390625000000000e+01 -4.320888900756835938e+01 -9.043574333190917969e+00
-3.905418777465820312e+01 -4.561469650268554688e+01 -8.470557212829589844e+00
-4.201265716552734375e+01 -4.598664474487304688e+01 -5.764978408813476562e+00
-4.481174468994140625e+01 -4.338643264770507812e+01 -5.828125953674316406e+00
-2.134999465942382812e+01 -4.438740539550781250e+01 -1.606364059448242188e+01
-2.529677963256835938e+01 -4.434311676025390625e+01 -2.109580039978027344e+01
-2.125345993041992188e+01 -4.151996612548828125e+01 -1.175637054443359375e+01
-4.367490386962890625e+01 -3.850504302978515625e+01 -8.143582344055175781e+00
-4.118212127685546875e+01 -3.292406082153320312e+01 -7.188480377197265625e+00
-3.281322479248046875e+01 -3.142573547363281250e+01 -2.022615432739257812e+01
-3.320070266723632812e+01 -3.604078292846679688e+01 -2.223023605346679688e+01
-3.168759155273437500e+01 -4.223681640625000000e+01 2.308351516723632812e+00
-3.527854156494140625e+01 -4.685866546630859375e+01 -5.991016387939453125e+00
-3.236944198608398438e+01 -4.554253768920898438e+01 -1.146791696548461914e+00
-3.619683074951171875e+01 -3.082046508789062500e+01 -3.451752185821533203e+00
-4.449201965332031250e+01 -3.431980895996093750e+01 -2.144856214523315430e+00
-5.656425857543945312e+01 -4.965451049804687500e+01 1.016055488586425781e+01
-4.870228195190429688e+01 -4.045446777343750000e+01 -1.298891186714172363e+00
-4.710027694702148438e+01 -4.491132354736328125e+01 -2.900813579559326172e+00
-5.578397750854492188e+01 -5.275838470458984375e+01 8.632993698120117188e+00
-4.663368988037109375e+01 -3.915807342529296875e+01 -4.107811450958251953e+00
-4.765467834472656250e+01 -3.706091690063476562e+01 2.066058158874511719e+00
-4.541822433471679688e+01 -5.576855468750000000e+01 1.322532653808593750e+01
-4.889968872070312500e+01 -5.627009201049804688e+01 9.786944389343261719e+00
-4.417186355590820312e+01 -5.315042877197265625e+01 1.507901287078857422e+01
-2.766963768005371094e+01 -2.809913635253906250e+01 -1.606149864196777344e+01
-3.038662719726562500e+01 -4.105733489990234375e+01 -2.355001258850097656e+01
-4.685219573974609375e+01 -4.820302581787109375e+01 1.763680076599121094e+01
-4.460745239257812500e+01 -5.093605422973632812e+01 1.667990684509277344e+01
-4.439802932739257812e+01 -4.724805068969726562e+01 -2.713187456130981445e+00
-5.308686065673828125e+01 -5.505184173583984375e+01 8.229652404785156250e+00
-5.500422286987304688e+01 -4.641772460937500000e+01 1.237231922149658203e+01
-5.080335617065429688e+01 -4.532054901123046875e+01 1.561674976348876953e+01
-5.741185379028320312e+01 -4.996147918701171875e+01 1.503663825988769531e+01
-5.334688568115234375e+01 -4.879100799560546875e+01 1.836160469055175781e+01
-4.941146850585937500e+01 -5.161528396606445312e+01 2.046776771545410156e+01
-4.703852081298828125e+01 -5.435249710083007812e+01 1.944809341430664062e+01
-4.634850692749023438e+01 -5.646977996826171875e+01 1.759504318237304688e+01
-5.875446319580078125e+01 -5.300986480712890625e+01 1.295435523986816406e+01
-5.781993484497070312e+01 -5.579814529418945312e+01 1.145471382141113281e+01
-5.399653244018554688e+01 -5.672219085693359375e+01 9.788396835327148438e+00
-6.029994583129882812e+01 -5.631789398193359375e+01 1.458802795410156250e+01
-6.038248443603515625e+01 -5.503848266601562500e+01 1.845502281188964844e+01
-5.878500366210937500e+01 -6.683003997802734375e+01 2.873137855529785156e+01
-5.577035522460937500e+01 -6.289588165283203125e+01 2.642869186401367188e+01
-5.675487136840820312e+01 -6.231913375854492188e+01 2.652272605895996094e+01
-6.004347991943359375e+01 -6.602510070800781250e+01 2.888376998901367188e+01
-5.360588455200195312e+01 -5.687186431884765625e+01 2.382823371887207031e+01
-5.536505126953125000e+01 -5.791328811645507812e+01 2.451881599426269531e+01
-5.780566406250000000e+01 -5.596661376953125000e+01 2.269498634338378906e+01
-6.105046463012695312e+01 -6.086426925659179688e+01 2.529726219177246094e+01
-6.373147583007812500e+01 -6.023047637939453125e+01 2.084259605407714844e+01
-6.578916931152343750e+01 -6.392196655273437500e+01 2.359673118591308594e+01
-6.366327667236328125e+01 -6.472520446777343750e+01 2.794873619079589844e+01
-6.077331542968750000e+01 -5.629424285888671875e+01 2.006064414978027344e+01
-6.183141326904296875e+01 -6.754325103759765625e+01 2.957359313964843750e+01
-6.080413818359375000e+01 -6.851975250244140625e+01 2.935519981384277344e+01
-5.668016433715820312e+01 -5.394656372070312500e+01 2.159688568115234375e+01
-4.995130157470703125e+01 -5.816913604736328125e+01 2.238003158569335938e+01
-5.391008758544921875e+01 -6.446763610839843750e+01 2.561276626586914062e+01
-5.712100219726562500e+01 -6.832673645019531250e+01 2.775871849060058594e+01
-5.896165847778320312e+01 -7.021109008789062500e+01 2.801139450073242188e+01
-5.316718292236328125e+01 -6.604950714111328125e+01 2.340734672546386719e+01
-5.642218780517578125e+01 -6.928533172607421875e+01 2.575382041931152344e+01
-5.901377105712890625e+01 -7.070261383056640625e+01 2.641292381286621094e+01
-5.372738647460937500e+01 -6.672669982910156250e+01 2.100869560241699219e+01
-5.663790130615234375e+01 -6.950907135009765625e+01 2.329487037658691406e+01
-4.778665924072265625e+01 -5.935210037231445312e+01 1.614656448364257812e+01
-4.815025711059570312e+01 -5.923284912109375000e+01 1.959062576293945312e+01
-5.899167633056640625e+01 -7.058689117431640625e+01 2.470049667358398438e+01
-6.409559631347656250e+01 -6.869512939453125000e+01 2.908448219299316406e+01
-6.326295852661132812e+01 -7.138138580322265625e+01 2.672237586975097656e+01
-6.435894012451171875e+01 -6.725498962402343750e+01 2.910090255737304688e+01
-6.369353485107421875e+01 -6.020879364013671875e+01 1.909212875366210938e+01
-6.630934906005859375e+01 -6.531221771240234375e+01 2.219504165649414062e+01
-6.279480743408203125e+01 -6.135493087768554688e+01 1.711910057067871094e+01
-6.546917724609375000e+01 -6.637053680419921875e+01 2.047874450683593750e+01
-6.704572296142578125e+01 -6.801819610595703125e+01 2.564618492126464844e+01
-6.688388824462890625e+01 -6.716351318359375000e+01 2.600991439819335938e+01
-4.657680511474609375e+01 -5.745422363281250000e+01 1.440800189971923828e+01
-5.039762115478515625e+01 -5.793392181396484375e+01 1.146457862854003906e+01
-5.135885620117187500e+01 -5.988750076293945312e+01 1.329090881347656250e+01
-5.604106521606445312e+01 -6.684432220458984375e+01 1.837760543823242188e+01
-5.478546905517578125e+01 -5.872437667846679688e+01 1.144899272918701172e+01
-5.904133224487304688e+01 -5.883096313476562500e+01 1.322347068786621094e+01
-6.117382812500000000e+01 -6.331589508056640625e+01 1.611247634887695312e+01
-5.897779464721679688e+01 -6.554158020019531250e+01 1.669513702392578125e+01
-6.362522125244140625e+01 -6.732252502441406250e+01 1.959726905822753906e+01
-6.132722091674804688e+01 -6.802062988281250000e+01 1.908039283752441406e+01
-5.828636550903320312e+01 -6.951424407958984375e+01 2.090744018554687500e+01
-6.425814056396484375e+01 -6.972350311279296875e+01 2.240256881713867188e+01
-6.602508544921875000e+01 -6.905923461914062500e+01 2.397785568237304688e+01
-6.247869873046875000e+01 -7.119507598876953125e+01 2.508980178833007812e+01
-6.215040206909179688e+01 -6.968455505371093750e+01 2.152077865600585938e+01
-6.076959228515625000e+01 -7.074411010742187500e+01 2.336561012268066406e+01
-2.797286415100097656e+01 -4.291257095336914062e+01 -2.357223510742187500e+01
-5.121777343750000000e+01 -5.153455734252929688e+01 -1.987282180786132812e+01
-5.244832611083984375e+01 -5.282970428466796875e+01 -2.337235450744628906e+01
-5.168321990966796875e+01 -5.035626602172851562e+01 -2.583680725097656250e+01
-4.945996093750000000e+01 -4.911384963989257812e+01 -2.231568336486816406e+01
-5.560516357421875000e+01 -4.286755752563476562e+01 -1.638211631774902344e+01
-5.319758987426757812e+01 -4.650494766235351562e+01 -1.566756248474121094e+01
-5.032802581787109375e+01 -4.312181854248046875e+01 -1.741942214965820312e+01
-5.257704925537109375e+01 -3.946465301513671875e+01 -1.853055572509765625e+01
-5.936417770385742188e+01 -4.196845245361328125e+01 -1.918016624450683594e+01
-5.693420410156250000e+01 -3.848833465576171875e+01 -2.161902236938476562e+01
-5.047522735595703125e+01 -3.774663925170898438e+01 -2.056346511840820312e+01
-4.771751785278320312e+01 -4.148326492309570312e+01 -1.943127441406250000e+01
-3.606700134277343750e+01 -3.689603805541992188e+01 -2.959906959533691406e+01
-3.767419433593750000e+01 -3.361458969116210938e+01 -3.270139312744140625e+01
-4.340406799316406250e+01 -4.338359069824218750e+01 -4.649742507934570312e+01
-3.991809082031250000e+01 -4.715587234497070312e+01 -4.502977752685546875e+01
-4.474686050415039062e+01 -4.704923248291015625e+01 -3.875569152832031250e+01
-4.683493804931640625e+01 -4.428417968750000000e+01 -4.070709228515625000e+01
-5.166533279418945312e+01 -4.949016189575195312e+01 -1.708664131164550781e+01
-4.912898635864257812e+01 -4.710466384887695312e+01 -1.894507026672363281e+01
-5.627561187744140625e+01 -4.708333587646484375e+01 -3.115538024902343750e+01
-5.351025390625000000e+01 -4.904869842529296875e+01 -3.017175292968750000e+01
-5.430768966674804688e+01 -5.070753479003906250e+01 -2.825790977478027344e+01
-5.770557785034179688e+01 -4.963857650756835938e+01 -2.920509338378906250e+01
-3.707192230224609375e+01 -4.858353424072265625e+01 -4.054329681396484375e+01
-3.402935791015625000e+01 -4.852200317382812500e+01 -3.695418167114257812e+01
-3.723316574096679688e+01 -4.730635833740234375e+01 -3.342774963378906250e+01
-4.205118560791015625e+01 -4.796953201293945312e+01 -3.556025695800781250e+01
-3.527870941162109375e+01 -4.419838714599609375e+01 -2.998131370544433594e+01
-5.794715499877929688e+01 -4.409387969970703125e+01 -3.068021583557128906e+01
-5.767754364013671875e+01 -3.934753417968750000e+01 -2.820793151855468750e+01
-4.644530487060546875e+01 -3.563474273681640625e+01 -4.144252395629882812e+01
-4.702958679199218750e+01 -4.002213287353515625e+01 -4.254566574096679688e+01
-4.719377899169921875e+01 -4.557621765136718750e+01 -2.032047843933105469e+01
-5.067811203002929688e+01 -4.924177169799804688e+01 -2.777979087829589844e+01
-4.818208694458007812e+01 -4.840737915039062500e+01 -2.399277687072753906e+01
-5.485439300537109375e+01 -3.657481002807617188e+01 -2.398888015747070312e+01
-6.029106903076171875e+01 -4.154198455810546875e+01 -2.576277542114257812e+01
-6.455529785156250000e+01 -5.613123321533203125e+01 -2.403169631958007812e+01
-6.150545501708984375e+01 -4.865389251708984375e+01 -2.728741455078125000e+01
-5.858865356445312500e+01 -5.198637771606445312e+01 -2.774541854858398438e+01
-6.236560821533203125e+01 -5.799223709106445312e+01 -2.465537071228027344e+01
-6.003923416137695312e+01 -4.620079803466796875e+01 -2.869409179687500000e+01
-6.242126464843750000e+01 -4.459445571899414062e+01 -2.370993995666503906e+01
-5.489556884765625000e+01 -5.932830810546875000e+01 -1.672179603576660156e+01
-5.611960983276367188e+01 -5.972288894653320312e+01 -2.131911277770996094e+01
-5.545710372924804688e+01 -5.783386230468750000e+01 -1.446541595458984375e+01
-4.224054718017578125e+01 -3.185412216186523438e+01 -3.678311157226562500e+01
-6.041784667968750000e+01 -5.325899505615234375e+01 -1.336230945587158203e+01
-5.739001464843750000e+01 -5.621743011474609375e+01 -1.301735877990722656e+01
-5.509263229370117188e+01 -5.314531707763671875e+01 -2.617332839965820312e+01
-5.896358108520507812e+01 -5.908307647705078125e+01 -2.416666030883789062e+01
-6.589694213867187500e+01 -5.357308197021484375e+01 -2.131679534912109375e+01
-6.414397430419921875e+01 -5.150321197509765625e+01 -1.653431320190429688e+01
-6.691526794433593750e+01 -5.813523101806640625e+01 -1.945896530151367188e+01
-6.494444274902343750e+01 -5.598719406127929688e+01 -1.511471080780029297e+01
-6.082393646240234375e+01 -5.799681854248046875e+01 -1.228214836120605469e+01
-5.775891113281250000e+01 -5.930943679809570312e+01 -1.249727153778076172e+01
-5.598532104492187500e+01 -6.065075683593750000e+01 -1.386594963073730469e+01
-6.546226501464843750e+01 -6.019965744018554688e+01 -2.243610572814941406e+01
-6.298952484130859375e+01 -6.142708587646484375e+01 -2.342378044128417969e+01
-5.920383453369140625e+01 -6.129422760009765625e+01 -2.345360565185546875e+01
-6.613962554931640625e+01 -6.454184722900390625e+01 -2.049139213562011719e+01
-6.735755920410156250e+01 -6.419763183593750000e+01 -1.680140113830566406e+01
-6.072971343994140625e+01 -7.296003723144531250e+01 -8.331821441650390625e+00
-6.003671264648437500e+01 -6.897244262695312500e+01 -9.435268402099609375e+00
-6.116298675537109375e+01 -6.885157775878906250e+01 -9.449721336364746094e+00
-6.161143875122070312e+01 -7.290345764160156250e+01 -8.141412734985351562e+00
-6.095428466796875000e+01 -6.367381668090820312e+01 -1.095918846130371094e+01
-6.211922454833984375e+01 -6.480595397949218750e+01 -1.086753273010253906e+01
-6.495848083496093750e+01 -6.342783355712890625e+01 -1.271368598937988281e+01
-6.495619964599609375e+01 -6.906564331054687500e+01 -1.086788940429687500e+01
-6.740370178222656250e+01 -7.059355926513671875e+01 -1.482112407684326172e+01
-6.730989837646484375e+01 -7.443811035156250000e+01 -1.286176013946533203e+01
-6.529811859130859375e+01 -7.284443664550781250e+01 -9.272702217102050781e+00
-6.706964874267578125e+01 -6.561479949951171875e+01 -1.511124610900878906e+01
-6.311850738525390625e+01 -7.516597747802734375e+01 -7.599059104919433594e+00
-6.293935012817382812e+01 -7.611025238037109375e+01 -7.645349979400634766e+00
-6.486609649658203125e+01 -6.142205047607421875e+01 -1.318024635314941406e+01
-5.754404830932617188e+01 -6.346112823486328125e+01 -1.162386035919189453e+01
-5.807384490966796875e+01 -7.009919738769531250e+01 -9.871192932128906250e+00
-5.992770385742187500e+01 -7.461260223388671875e+01 -8.736153602600097656e+00
-6.301981353759765625e+01 -7.740699005126953125e+01 -8.013453483581542969e+00
-5.654439544677734375e+01 -6.990938568115234375e+01 -1.149974918365478516e+01
-5.894431686401367188e+01 -7.494902801513671875e+01 -9.983266830444335938e+00
-6.193400955200195312e+01 -7.732691192626953125e+01 -9.286160469055175781e+00
-5.619444656372070312e+01 -7.005313110351562500e+01 -1.421946144104003906e+01
-5.826567840576171875e+01 -7.490263366699218750e+01 -1.215965175628662109e+01
-5.556089019775390625e+01 -6.401317596435546875e+01 -1.668173217773437500e+01
-5.583285522460937500e+01 -6.379449462890625000e+01 -1.355694866180419922e+01
-6.054226684570312500e+01 -7.696549224853515625e+01 -1.100194168090820312e+01
-6.556979370117187500e+01 -7.738753509521484375e+01 -8.982231140136718750e+00
-6.443535614013671875e+01 -7.876673889160156250e+01 -1.008621788024902344e+01
-6.592447662353515625e+01 -7.609870910644531250e+01 -8.714326858520507812e+00
-6.727287292480468750e+01 -7.055558776855468750e+01 -1.609128952026367188e+01
-6.704308319091796875e+01 -7.531716156005859375e+01 -1.395092201232910156e+01
-6.597425079345703125e+01 -7.095566558837890625e+01 -1.790844345092773438e+01
-6.586317443847656250e+01 -7.600185394287109375e+01 -1.492097663879394531e+01
-6.665608215332031250e+01 -7.745019531250000000e+01 -1.197332000732421875e+01
-6.695378875732421875e+01 -7.598770904541015625e+01 -1.097845172882080078e+01
-5.537314605712890625e+01 -6.206712722778320312e+01 -1.676404571533203125e+01
-5.642491912841796875e+01 -6.178838348388671875e+01 -2.054518699645996094e+01
-5.685435104370117188e+01 -6.379267120361328125e+01 -2.033870887756347656e+01
-5.763598632812500000e+01 -7.043040466308593750e+01 -1.733112144470214844e+01
-5.983092498779296875e+01 -6.366106033325195312e+01 -2.267245674133300781e+01
-6.356200027465820312e+01 -6.443653106689453125e+01 -2.215023994445800781e+01
-6.368071365356445312e+01 -7.131306457519531250e+01 -1.897037124633789062e+01
-6.075316619873046875e+01 -7.126709747314453125e+01 -1.899920272827148438e+01
-6.428922271728515625e+01 -7.626393127441406250e+01 -1.531946563720703125e+01
-6.163879394531250000e+01 -7.580104827880859375e+01 -1.571633911132812500e+01
-5.918451690673828125e+01 -7.512507629394531250e+01 -1.451953601837158203e+01
-6.482881927490234375e+01 -7.812437438964843750e+01 -1.236458206176757812e+01
-6.586741638183593750e+01 -7.835984802246093750e+01 -1.222264671325683594e+01
-6.366200637817382812e+01 -7.799378967285156250e+01 -1.054406929016113281e+01
-6.265522384643554688e+01 -7.738991546630859375e+01 -1.303341102600097656e+01
-6.138652420043945312e+01 -7.721327209472656250e+01 -1.221878337860107422e+01
-4.516116333007812500e+01 -4.026228713989257812e+01 -4.531172561645507812e+01
5.302096557617187500e+01 -6.512445068359375000e+01 -4.242248153686523438e+01
4.798126983642578125e+01 -6.443934631347656250e+01 -4.118378829956054688e+01
4.150587081909179688e+01 -7.803385925292968750e+01 -4.691895675659179688e+01
3.931637573242187500e+01 -7.238555145263671875e+01 -4.301521301269531250e+01
4.647145462036132812e+01 -8.080644226074218750e+01 -4.938168334960937500e+01
5.512609100341796875e+01 -7.739035797119140625e+01 -5.059431076049804688e+01
5.106671905517578125e+01 -7.961372375488281250e+01 -5.119827270507812500e+01
