4.909617233276367188e+01 -5.744614791870117188e+01 -1.722465872764587402e+00
4.989445114135742188e+01 -5.499239349365234375e+01 -3.269074916839599609e+00
5.536081695556640625e+01 -5.552351760864257812e+01 -3.214779615402221680e+00
-2.087184333801269531e+01 -1.512209796905517578e+01 -9.751649475097656250e+01
-1.569029521942138672e+01 -5.745300769805908203e+00 -9.651039123535156250e+01
-1.767431831359863281e+01 -6.641898155212402344e+00 -1.030688323974609375e+02
-2.068748855590820312e+01 -1.633990097045898438e+01 -1.046976470947265625e+02
-2.006219100952148438e+01 -1.365538597106933594e+01 -8.792844390869140625e+01
-1.201116275787353516e+01 -5.682703495025634766e+00 -8.732460021972656250e+01
5.841257476806640625e+01 -5.458458328247070312e+01 8.117179870605468750e+00
5.931133270263671875e+01 -5.677280807495117188e+01 4.184517860412597656e+00
6.077751541137695312e+01 -5.230115509033203125e+01 3.284721851348876953e+00
5.967380523681640625e+01 -4.926777267456054688e+01 6.946283817291259766e+00
4.289946746826171875e+01 -4.748096466064453125e+01 -4.471075439453125000e+01
3.311109161376953125e+01 -4.573226165771484375e+01 -4.790458679199218750e+01
4.797317886352539062e+01 -4.451782226562500000e+01 -2.826997756958007812e+01
4.162139511108398438e+01 -4.388503265380859375e+01 -3.565425491333007812e+01
4.798954391479492188e+01 -4.539771270751953125e+01 -3.690007781982421875e+01
5.302673339843750000e+01 -4.444531631469726562e+01 -3.097990989685058594e+01
2.025105857849121094e+01 -3.528364181518554688e+01 -4.074125289916992188e+01
1.793026351928710938e+01 -3.619315719604492188e+01 -5.260696411132812500e+01
2.331956672668457031e+01 -3.806479644775390625e+01 -5.113665390014648438e+01
2.780945968627929688e+01 -3.806114959716796875e+01 -3.865005874633789062e+01
3.913586854934692383e+00 -3.492548751831054688e+01 -5.303837966918945312e+01
7.422764778137207031e+00 -3.354395675659179688e+01 -4.111470413208007812e+01
-1.085622429847717285e+00 -3.336302566528320312e+01 -4.254821014404296875e+01
-2.417940139770507812e+00 -3.496648025512695312e+01 -5.088704681396484375e+01
1.681824684143066406e+01 -3.604917526245117188e+01 -2.192990112304687500e+01
1.941200828552246094e+01 -3.485405731201171875e+01 -1.572781658172607422e+01
1.623102569580078125e+01 -3.441923522949218750e+01 -1.532178783416748047e+01
1.319117736816406250e+01 -3.524001693725585938e+01 -2.225172805786132812e+01
-1.719040489196777344e+01 -7.401077270507812500e+00 -1.091063003540039062e+02
-1.880519485473632812e+01 -1.731301307678222656e+01 -1.109428253173828125e+02
-1.133135795593261719e+01 -8.213665008544921875e+00 -4.654484939575195312e+01
-1.957077980041503906e+01 -1.425152873992919922e+01 -5.101924896240234375e+01
-2.018935775756835938e+01 -1.557769489288330078e+01 -3.883566284179687500e+01
-1.158624267578125000e+01 -8.919815063476562500e+00 -3.715430831909179688e+01
-6.419421195983886719e+00 -6.355955004692077637e-01 -9.512076568603515625e+01
-1.016451835632324219e+01 1.963905990123748779e-01 -1.013084564208984375e+02
5.464395904541015625e+01 -5.228219604492187500e+01 1.172147655487060547e+01
5.567539215087890625e+01 -4.693792724609375000e+01 1.018536567687988281e+01
4.960566329956054688e+01 -4.725363159179687500e+01 -9.456999206542968750e+01
5.730969238281250000e+01 -5.830274200439453125e+01 -8.105610656738281250e+01
4.333647537231445312e+01 -3.955056762695312500e+01 -1.044070205688476562e+02
3.983166885375976562e+01 -3.318161773681640625e+01 -1.112564926147460938e+02
3.727888488769531250e+01 -2.954417991638183594e+01 -1.175024871826171875e+02
3.749330902099609375e+01 -4.217839050292968750e+01 -3.189639282226562500e+01
2.586431312561035156e+01 -4.221712112426757812e+01 -5.340547561645507812e+01
1.222788047790527344e+01 -3.889488601684570312e+01 -6.338827514648437500e+01
-1.766345024108886719e+01 -3.648125076293945312e+01 -6.011199188232421875e+01
-1.925713348388671875e+01 -3.732564544677734375e+01 -7.027524566650390625e+01
-9.117033004760742188e+00 -4.041675567626953125e+01 -6.744798278808593750e+01
-9.590002059936523438e+00 -3.828871917724609375e+01 -5.933516693115234375e+01
-2.375811195373535156e+01 -2.338279151916503906e+01 -5.149112701416015625e+01
-2.144480514526367188e+01 -3.063245010375976562e+01 -4.980197525024414062e+01
-1.949407958984375000e+01 -2.995259094238281250e+01 -4.011125564575195312e+01
-2.276534652709960938e+01 -2.389280509948730469e+01 -4.065064239501953125e+01
6.360250854492187500e+01 -5.731801605224609375e+01 -6.027422332763671875e+01
6.007373046875000000e+01 -4.700781250000000000e+01 -6.787749481201171875e+01
-2.100416183471679688e+01 -2.603460121154785156e+01 -9.892033386230468750e+01
-1.867401504516601562e+01 -2.697824096679687500e+01 -1.064300079345703125e+02
-1.630635643005371094e+01 -2.497150039672851562e+01 -1.137111816406250000e+02
5.102147579193115234e+00 -4.535027313232421875e+01 -8.350422668457031250e+01
4.122375488281250000e+00 -4.555593109130859375e+01 -9.845301818847656250e+01
7.944760322570800781e+00 -4.844307708740234375e+01 -9.798436737060546875e+01
7.335031032562255859e+00 -4.659262847900390625e+01 -8.273722839355468750e+01
1.906735610961914062e+01 -5.838433074951171875e+01 -7.598549652099609375e+01
1.960013389587402344e+01 -6.003604888916015625e+01 -8.974085998535156250e+01
2.828201293945312500e+01 -6.445837402343750000e+01 -6.938364410400390625e+01
1.121386528015136719e+01 -4.385832595825195312e+01 -1.114732818603515625e+02
4.933378696441650391e+00 -3.878948211669921875e+01 -1.168629608154296875e+02
1.333632087707519531e+01 -4.049304199218750000e+01 -1.189135742187500000e+02
-4.407849788665771484e+00 -3.550045013427734375e+01 -1.161850814819335938e+02
-1.211281776428222656e+01 -3.032908248901367188e+01 -1.151894073486328125e+02
-1.035167598724365234e+01 1.045026063919067383e+00 -1.079203948974609375e+02
2.187406921386718750e+01 -4.059943771362304688e+01 -1.195925064086914062e+02
4.406640625000000000e+01 -7.292879486083984375e+01 -6.486003112792968750e+01
4.847274780273437500e+01 -7.569437408447265625e+01 -5.891453170776367188e+01
4.678419494628906250e+01 -7.151285552978515625e+01 -5.355527496337890625e+01
4.255594635009765625e+01 -6.827801513671875000e+01 -5.830792236328125000e+01
6.120414352416992188e+01 -3.499142456054687500e+01 -2.813664245605468750e+01
5.825646972656250000e+01 -4.161038970947265625e+01 -2.993756103515625000e+01
5.567757415771484375e+01 -4.379813003540039062e+01 -3.817724609375000000e+01
-7.736927986145019531e+00 -4.328385162353515625e+01 -8.455825805664062500e+01
-1.878495407104492188e+01 -3.744002532958984375e+01 -8.638350677490234375e+01
4.381719207763671875e+01 -4.307177352905273438e+01 -2.388556098937988281e+01
6.021438598632812500e+01 -4.501501846313476562e+01 3.947497606277465820e+00
6.159641265869140625e+01 -4.858330917358398438e+01 4.914885461330413818e-01
6.186962127685546875e+01 -3.968577957153320312e+01 -1.445709991455078125e+01
6.050548171997070312e+01 -3.471561431884765625e+01 -1.071267795562744141e+01
4.347214889526367188e+01 -3.856321716308593750e+01 -1.497277545928955078e+01
4.524914932250976562e+01 -4.222806549072265625e+01 -1.919882583618164062e+01
4.547508239746093750e+01 -4.257407760620117188e+01 -1.626892089843750000e+01
4.337670516967773438e+01 -3.973074340820312500e+01 -1.143876075744628906e+01
6.766667366027832031e+00 -3.392752838134765625e+01 -1.890382003784179688e+01
4.382315635681152344e+00 -3.373236083984375000e+01 -2.481780433654785156e+01
4.311049652099609375e+01 -1.647104644775390625e+01 -2.239435577392578125e+01
5.562352371215820312e+01 -1.805912780761718750e+01 -2.671085548400878906e+01
5.398749923706054688e+01 -1.650156784057617188e+01 -3.818554687500000000e+01
1.297572803497314453e+01 -3.386651611328125000e+01 -4.178182983398437500e+01
1.436647033691406250e+01 -3.504557418823242188e+01 -3.120462608337402344e+01
1.012028789520263672e+01 -3.452348709106445312e+01 -3.119200706481933594e+01
3.566868209838867188e+01 -4.137371826171875000e+01 -2.804648971557617188e+01
3.977477645874023438e+01 -4.104897308349609375e+01 -2.091827392578125000e+01
3.462921905517578125e+01 -4.051484680175781250e+01 -2.279176712036132812e+01
3.042969894409179688e+01 -3.957052612304687500e+01 -2.973388671875000000e+01
-1.956052589416503906e+01 -1.316497516632080078e+01 -6.407352447509765625e+01
-2.477408981323242188e+01 -2.352309989929199219e+01 -6.448078155517578125e+01
5.804567718505859375e+01 -5.753253173828125000e+01 6.111291646957397461e-01
5.931761550903320312e+01 -5.433494949340820312e+01 -7.028662562370300293e-01
1.112783622741699219e+01 -3.491632843017578125e+01 -5.353453445434570312e+01
5.045493316650390625e+01 -1.722166061401367188e+01 -5.259035110473632812e+01
7.387972831726074219e+00 -3.829844665527343750e+01 -6.380730056762695312e+01
2.968774735927581787e-01 -1.440642738342285156e+01 -2.281785392761230469e+01
-3.739758968353271484e+00 -1.825835609436035156e+01 -2.012089920043945312e+01
-2.347300052642822266e+00 -2.375844764709472656e+01 -1.700634384155273438e+01
9.898042678833007812e-01 -1.958526039123535156e+01 -1.554986095428466797e+01
4.311287689208984375e+01 -4.569443893432617188e+01 3.222577571868896484e-01
4.476512908935546875e+01 -4.996186828613281250e+01 -2.866370677947998047e+00
4.460135650634765625e+01 -5.207289505004882812e+01 -6.784278750419616699e-01
4.273249435424804688e+01 -4.839256668090820312e+01 3.415989637374877930e+00
4.958035278320312500e+01 -4.423922348022460938e+01 -2.195778656005859375e+01
5.479306793212890625e+01 -4.415464019775390625e+01 -2.443601417541503906e+01
5.498535156250000000e+01 -4.566090774536132812e+01 -1.879458236694335938e+01
4.963497543334960938e+01 -4.514458465576171875e+01 -1.765507888793945312e+01
5.950693511962890625e+01 -4.169741058349609375e+01 -2.288741111755371094e+01
5.970944213867187500e+01 -4.365000915527343750e+01 -1.773082351684570312e+01
4.494966506958007812e+01 -4.231276702880859375e+01 4.123846530914306641e+00
5.047653961181640625e+01 -4.064638519287109375e+01 6.899919986724853516e+00
4.919380950927734375e+01 -3.128518104553222656e+01 -6.831816196441650391e+00
4.428508758544921875e+01 -3.591576004028320312e+01 -6.905911445617675781e+00
6.925330162048339844e+00 -3.883944749832153320e+00 -7.257444000244140625e+01
-3.822938442230224609e+00 -4.821663856506347656e+00 -7.361009216308593750e+01
-3.327102661132812500e+00 -5.754858970642089844e+00 -5.818315505981445312e+01
-3.261760234832763672e+00 -6.398311138153076172e+00 -4.372704315185546875e+01
-2.478064060211181641e+00 -9.594205856323242188e+00 -3.028549575805664062e+01
8.325705528259277344e+00 -7.696166992187500000e+00 -2.865930557250976562e+01
-1.087931442260742188e+01 -7.502892494201660156e+00 -6.040810012817382812e+01
4.211170578002929688e+01 -2.908430099487304688e+01 -1.447156333923339844e+01
4.814493179321289062e+01 -2.412575912475585938e+01 -1.616933059692382812e+01
4.233122634887695312e+01 -2.166268539428710938e+01 -1.676729202270507812e+01
5.138039588928222656e-01 -3.981567382812500000e+01 -6.321417999267578125e+01
6.024740600585937500e+01 -5.140209197998046875e+01 -3.227870225906372070e+00
3.502904510498046875e+01 -1.095871162414550781e+01 -1.046909561157226562e+02
2.487028884887695312e+01 -2.670228004455566406e+00 -1.018931121826171875e+02
2.735595321655273438e+01 -5.578835964202880859e+00 -9.530147552490234375e+01
3.783794403076171875e+01 -1.516986560821533203e+01 -9.815499877929687500e+01
5.004204559326171875e+01 -5.336680221557617188e+01 -5.699570655822753906e+00
5.583674240112304688e+01 -5.377698516845703125e+01 -5.871925354003906250e+00
-1.707011461257934570e+00 -3.267814254760742188e+01 -2.341486167907714844e+01
1.124628305435180664e+00 -3.202793121337890625e+01 -1.893270492553710938e+01
-1.287568092346191406e+00 -3.016243553161621094e+01 -1.722485351562500000e+01
-5.636811256408691406e+00 -3.016941833496093750e+01 -2.014237594604492188e+01
-9.433532714843750000e+00 -6.098134517669677734e+00 -7.561393737792968750e+01
-2.097474670410156250e+01 -1.691618728637695312e+01 -3.113355064392089844e+01
-1.327692890167236328e+01 -1.095982646942138672e+01 -3.015740394592285156e+01
-3.766075611114501953e+00 -2.818526744842529297e+00 -8.675038146972656250e+01
5.783912658691406250e+00 -2.076653003692626953e+00 -8.612510681152343750e+01
4.988472461700439453e+00 7.830829024314880371e-01 -9.471798706054687500e+01
2.137348365783691406e+01 -1.221912193298339844e+01 -2.072594261169433594e+01
1.546522521972656250e+01 -4.065838813781738281e+00 -6.960084533691406250e+01
1.355599212646484375e+01 -2.782766342163085938e+00 -8.453783416748046875e+01
1.285096740722656250e+01 -1.720097810029983521e-01 -9.498955535888671875e+01
1.206539726257324219e+01 2.716117620468139648e+00 -1.017863769531250000e+02
3.411303997039794922e+00 3.525610446929931641e+00 -1.008574981689453125e+02
5.565731048583984375e+01 -4.221286773681640625e+01 6.818266868591308594e+00
4.964796447753906250e+01 -4.541635894775390625e+01 1.107427597045898438e+01
1.675442457199096680e+00 5.065058231353759766e+00 -1.081126861572265625e+02
1.114225578308105469e+01 4.570496559143066406e+00 -1.085679931640625000e+02
2.279287338256835938e+01 -4.656723499298095703e+00 -8.335145568847656250e+01
3.281615447998046875e+01 -9.604278564453125000e+00 -8.252213287353515625e+01
2.439823722839355469e+01 -5.472567558288574219e+00 -6.922477722167968750e+01
3.514978027343750000e+01 -9.524441719055175781e+00 -6.752357482910156250e+01
3.154958534240722656e+01 -8.437055587768554688e+00 -2.382627677917480469e+01
4.136570358276367188e+01 -6.237270355224609375e+01 1.146481418609619141e+01
4.359687805175781250e+01 -5.137354660034179688e+01 1.023018074035644531e+01
4.163320159912109375e+01 -5.247700119018554688e+01 5.685679435729980469e+00
3.906279754638671875e+01 -6.226013183593750000e+01 8.498262405395507812e+00
4.457722091674804688e+01 -4.614951705932617188e+01 7.866647243499755859e+00
4.848685073852539062e+01 -5.057080078125000000e+01 1.273895263671875000e+01
4.692284393310546875e+01 -1.867499732971191406e+01 -6.789817810058593750e+01
3.795281600952148438e+01 -3.820519256591796875e+01 -1.726723861694335938e+01
4.440252304077148438e+01 -2.112626075744628906e+01 -8.448974609375000000e+01
5.656090164184570312e+01 -3.059319496154785156e+01 -6.338050079345703125e+01
5.458097457885742188e+01 -3.405585479736328125e+01 -7.607557678222656250e+01
4.301834869384765625e+01 -2.569696998596191406e+01 -1.013919525146484375e+02
5.046092987060546875e+01 -3.520630645751953125e+01 -9.128741455078125000e+01
3.791744232177734375e+01 -1.909268760681152344e+01 -1.141215362548828125e+02
3.993228912353515625e+01 -2.141204833984375000e+01 -1.073538208007812500e+02
5.691038894653320312e+01 -4.590716171264648438e+01 -8.103741455078125000e+01
4.950661087036132812e+01 -6.470435333251953125e+01 -7.466356754302978516e-01
4.401509857177734375e+01 -6.298411941528320312e+01 7.746565341949462891e-02
3.343080902099609375e+01 -8.536266326904296875e+00 -1.112026596069335938e+02
3.663908386230468750e+01 -6.645915985107421875e+01 -6.293083572387695312e+01
-6.098744273185729980e-01 -4.173138809204101562e+01 -7.330165863037109375e+01
4.824202060699462891e+00 -4.151959609985351562e+01 -7.282817077636718750e+01
-1.946849822998046875e+01 -3.748817062377929688e+01 -7.655587005615234375e+01
-8.442300796508789062e+00 -4.187113952636718750e+01 -7.467354583740234375e+01
5.366653442382812500e+01 -6.555627441406250000e+01 1.297638416290283203e+00
2.011982345581054688e+01 -3.208197402954101562e+01 -1.158450698852539062e+01
1.803958511352539062e+01 -3.142780113220214844e+01 -1.229961681365966797e+01
5.024542236328125000e+01 -7.395733642578125000e+01 -7.065466308593750000e+01
5.395637130737304688e+01 -7.639824676513671875e+01 -6.495487213134765625e+01
6.414533996582031250e+01 -6.848863220214843750e+01 -6.558496093750000000e+01
6.009404373168945312e+01 -7.377700042724609375e+01 -6.651451110839843750e+01
5.686093902587890625e+01 -7.026249694824218750e+01 -7.369966125488281250e+01
6.120348358154296875e+01 -6.421815490722656250e+01 -7.365174102783203125e+01
2.917506694793701172e+00 -4.465988922119140625e+01 -8.367208099365234375e+01
-9.324874877929687500e-01 -4.407197189331054688e+01 -8.333445739746093750e+01
-2.000080871582031250e+01 -1.344560527801513672e+01 -7.699780273437500000e+01
-2.441724205017089844e+01 -2.488719940185546875e+01 -7.634358215332031250e+01
6.156694793701171875e+01 -3.652547454833984375e+01 -2.078549766540527344e+01
6.074163818359375000e+01 -2.644736099243164062e+01 -2.619855690002441406e+01
6.028852462768554688e+01 -2.997797012329101562e+01 -1.805638694763183594e+01
5.556119537353515625e+01 -3.034013748168945312e+01 -9.361403465270996094e+00
4.016138839721679688e+01 -3.472020339965820312e+01 -1.472306060791015625e+01
4.391628265380859375e+01 -3.275555038452148438e+01 -1.282845306396484375e+01
1.271206855773925781e+01 -5.418133544921875000e+01 -9.378138732910156250e+01
1.171075916290283203e+01 -5.091382598876953125e+01 -8.021490478515625000e+01
4.549556350708007812e+01 -6.398445510864257812e+01 -5.367969894409179688e+01
5.068846893310546875e+01 -6.362300872802734375e+01 -4.974935913085937500e+01
2.306528854370117188e+01 -3.673633575439453125e+01 -3.205190277099609375e+01
2.523494338989257812e+01 -1.902196311950683594e+01 -1.178209018707275391e+01
3.340213775634765625e+01 -1.581359863281250000e+01 -1.445733833312988281e+01
2.609842491149902344e+01 -3.789966583251953125e+01 -2.330154418945312500e+01
5.421882247924804688e+01 -6.557398986816406250e+01 7.996750831604003906e+00
5.486389923095703125e+01 -6.598761749267578125e+01 4.066517829895019531e+00
5.563573455810546875e+01 -2.489746665954589844e+01 -1.700546836853027344e+01
1.681513190269470215e+00 -3.367561721801757812e+01 -3.249681091308593750e+01
1.810042190551757812e+01 -1.662612915039062500e+01 -1.597279834747314453e+01
2.243510246276855469e+01 -2.524197006225585938e+01 -9.641163825988769531e+00
-2.207085037231445312e+01 -2.489139938354492188e+01 -3.420217895507812500e+01
2.356844902038574219e+01 -5.408964157104492188e-01 -1.091452789306640625e+02
4.325169372558593750e+01 -5.509209060668945312e+01 1.274237275123596191e+00
4.009733963012695312e+01 -6.155842208862304688e+01 3.153247356414794922e+00
4.526760101318359375e+01 -6.224075317382812500e+01 1.279210853576660156e+01
5.089922332763671875e+01 -6.293557739257812500e+01 1.180856418609619141e+01
-2.304616546630859375e+01 -2.648064613342285156e+01 -8.722647857666015625e+01
8.075829505920410156e+00 -4.164702224731445312e+01 -7.195227050781250000e+01
6.129731369018554688e+01 -5.402888107299804688e+01 -7.304652404785156250e+01
6.515218353271484375e+01 -6.202482223510742188e+01 -6.364332199096679688e+01
2.847689819335937500e+01 -3.716073608398437500e+01 -1.829124832153320312e+01
-6.229234695434570312e+00 -1.272736549377441406e+01 -2.558625411987304688e+01
8.305330276489257812e+00 -1.231540966033935547e+01 -1.982750892639160156e+01
7.981225490570068359e+00 -1.694122314453125000e+01 -1.225931167602539062e+01
1.414381885528564453e+01 -2.006238937377929688e+01 -9.501158714294433594e+00
1.803903579711914062e+01 -2.625719833374023438e+01 -8.360272407531738281e+00
4.333507156372070312e+01 -6.760447692871093750e+01 1.229594612121582031e+01
4.892785644531250000e+01 -6.828749084472656250e+01 1.136279773712158203e+01
5.225062179565429688e+01 -7.049222564697265625e+01 7.422051906585693359e+00
5.290155029296875000e+01 -7.030600738525390625e+01 3.813355684280395508e+00
5.172441482543945312e+01 -6.855912017822265625e+01 8.062354922294616699e-01
3.953050613403320312e+01 -6.766597747802734375e+01 1.091221427917480469e+01
3.763171386718750000e+01 -6.748746490478515625e+01 8.132096290588378906e+00
3.877971649169921875e+01 -6.497276306152343750e+01 3.361642122268676758e+00
3.789004135131835938e+01 -7.275355529785156250e+01 9.477765083312988281e+00
4.113093948364257812e+01 -7.629579162597656250e+01 1.003083992004394531e+01
4.791067886352539062e+01 -8.245391082763671875e+01 7.426339387893676758e-01
4.931534957885742188e+01 -7.838714599609375000e+01 4.772459983825683594e+00
4.773817825317382812e+01 -8.045605468750000000e+01 4.864698886871337891e+00
4.628098678588867188e+01 -8.455199432373046875e+01 2.025681495666503906e+00
4.408369064331054688e+01 -8.831542968750000000e+01 4.265678524971008301e-01
4.546618270874023438e+01 -8.672428131103515625e+01 -1.217792272567749023e+00
4.585471725463867188e+01 -7.824452972412109375e+01 8.277751922607421875e+00
4.355617523193359375e+01 -8.389391326904296875e+01 4.932263374328613281e+00
3.977936172485351562e+01 -8.298217773437500000e+01 6.142485618591308594e+00
3.850017166137695312e+01 -8.740472412109375000e+01 3.576437473297119141e+00
4.156761550903320312e+01 -8.817781066894531250e+01 2.789187908172607422e+00
4.172397613525390625e+01 -7.918792724609375000e+01 8.511438369750976562e+00
4.652365875244140625e+01 -7.609331512451171875e+01 9.357609748840332031e+00
4.270265960693359375e+01 -8.998670959472656250e+01 -1.917261362075805664e+00
4.249277496337890625e+01 -9.012571716308593750e+01 -6.538797914981842041e-02
4.022170257568359375e+01 -9.007125091552734375e+01 1.495826005935668945e+00
3.867467117309570312e+01 -9.172192382812500000e+01 -2.073807418346405029e-01
5.110048675537109375e+01 -7.448252105712890625e+01 2.194588184356689453e+00
4.789166259765625000e+01 -8.136818695068359375e+01 -9.020797014236450195e-01
4.488252639770507812e+01 -8.576760101318359375e+01 -3.002178907394409180e+00
4.198121261596679688e+01 -8.895709228515625000e+01 -3.336013078689575195e+00
4.581403350830078125e+01 -8.080189514160156250e+01 -3.052373647689819336e+00
4.335400009155273438e+01 -8.466664886474609375e+01 -4.070528984069824219e+00
4.065891647338867188e+01 -8.699229431152343750e+01 -4.073946952819824219e+00
4.259043121337890625e+01 -8.010117340087890625e+01 -3.874964475631713867e+00
4.082051849365234375e+01 -8.379227447509765625e+01 -4.364037990570068359e+00
4.716679763793945312e+01 -6.968562316894531250e+01 -1.074483633041381836e+00
5.037309646606445312e+01 -7.104842376708984375e+01 2.611052989959716797e-01
3.974631500244140625e+01 -8.573572540283203125e+01 -4.260561466217041016e+00
3.777352142333984375e+01 -8.850570678710937500e+01 -1.776186227798461914e+00
3.734617614746093750e+01 -8.034242248535156250e+01 6.809119224548339844e+00
3.594266510009765625e+01 -8.632111358642578125e+01 3.115739345550537109e+00
3.581818389892578125e+01 -7.918495178222656250e+01 5.903748512268066406e+00
3.470697021484375000e+01 -8.523344421386718750e+01 2.164670705795288086e+00
3.603893280029296875e+01 -8.914182281494140625e+01 1.369279146194458008e+00
3.782441711425781250e+01 -8.928816223144531250e+01 2.207834959030151367e+00
4.812584686279296875e+01 -6.651605987548828125e+01 -8.172559738159179688e-01
4.231207275390625000e+01 -6.500225830078125000e+01 5.001153945922851562e-01
4.168262481689453125e+01 -6.800927734375000000e+01 7.168526947498321533e-02
3.869261169433593750e+01 -7.910047912597656250e+01 -2.723889827728271484e+00
3.799120330810546875e+01 -6.845783996582031250e+01 2.771811962127685547e+00
3.629412460327148438e+01 -7.221385192871093750e+01 6.570075988769531250e+00
3.476734161376953125e+01 -7.902619171142578125e+01 3.534560441970825195e+00
3.538369750976562500e+01 -7.861726379394531250e+01 6.356475353240966797e-01
3.428961944580078125e+01 -8.384273529052734375e+01 7.367124557495117188e-01
3.514944076538085938e+01 -8.305632019042968750e+01 -1.141481399536132812e+00
3.774266433715820312e+01 -8.327346038818359375e+01 -3.420848131179809570e+00
3.509778976440429688e+01 -8.684617614746093750e+01 -1.048217058181762695e+00
3.516970062255859375e+01 -8.830641174316406250e+01 5.863788127899169922e-01
3.754340362548828125e+01 -8.745017242431640625e+01 -3.181773662567138672e+00
3.555976486206054688e+01 -8.556915283203125000e+01 -1.941780686378479004e+00
3.761926651000976562e+01 -8.608934020996093750e+01 -3.605987548828125000e+00
3.392452621459960938e+01 -5.589662933349609375e+01 -1.572645008563995361e-01
2.733292770385742188e+01 -5.585678863525390625e+01 -2.129053324460983276e-01
2.868845558166503906e+01 -5.252478790283203125e+01 -7.118375897407531738e-01
3.485466766357421875e+01 -5.278421020507812500e+01 -4.245332777500152588e-01
3.684248733520507812e+01 -5.345888519287109375e+01 1.166563129425048828e+01
3.842963409423828125e+01 -5.484627151489257812e+01 6.972344398498535156e+00
3.928907012939453125e+01 -5.016133880615234375e+01 7.672464847564697266e+00
3.705763244628906250e+01 -4.757980346679687500e+01 1.247253227233886719e+01
3.228314971923828125e+01 -5.219686889648437500e+01 1.443707275390625000e+01
3.208344268798828125e+01 -4.547962951660156250e+01 1.456357097625732422e+01
3.764688873291015625e+01 -4.245040893554687500e+01 1.048929882049560547e+01
3.996326446533203125e+01 -4.547429275512695312e+01 5.996466159820556641e+00
4.058530426025390625e+01 -3.183058166503906250e+01 -9.394390106201171875e+00
3.911140441894531250e+01 -2.676007461547851562e+01 -6.367775917053222656e+00
2.432326889038085938e+01 -3.612530899047851562e+01 -1.219497680664062500e+01
2.245672988891601562e+01 -3.455889129638671875e+01 -9.441431999206542969e+00
3.705995941162109375e+01 -5.572221755981445312e+01 2.602276325225830078e+00
3.827404022216796875e+01 -5.178461837768554688e+01 3.185307025909423828e+00
2.147666168212890625e+01 -4.629040527343750000e+01 2.881154537200927734e+00
2.494533157348632812e+01 -4.880460739135742188e+01 -7.885193228721618652e-01
2.351791763305664062e+01 -5.130918121337890625e+01 1.579878687858581543e+00
2.076366615295410156e+01 -4.982213592529296875e+01 5.894079685211181641e+00
3.615419387817382812e+01 -3.705818939208984375e+01 -1.371536064147949219e+01
3.016391944885253906e+01 -3.769837188720703125e+01 -1.398184776306152344e+01
3.889476013183593750e+01 -3.535490036010742188e+01 -1.175936508178710938e+01
2.150265884399414062e+01 -4.330656433105468750e+01 7.709898471832275391e+00
2.517445755004882812e+01 -4.081587600708007812e+01 1.164385414123535156e+01
2.648256301879882812e+01 -2.553038978576660156e+01 -3.167891263961791992e+00
2.210315322875976562e+01 -2.965966796875000000e+01 -4.535843849182128906e+00
3.883436203002929688e+01 -4.796806716918945312e+01 1.799383878707885742e+00
3.046441078186035156e+01 -5.029190826416015625e+01 -2.597962856292724609e+00
3.540927886962890625e+01 -4.996062850952148438e+01 -1.791782379150390625e+00
3.187104797363281250e+01 -4.016261672973632812e+01 1.249018669128417969e+01
2.534536361694335938e+01 -4.659852218627929688e+01 1.396913433074951172e+01
2.119412612915039062e+01 -6.678395080566406250e+01 8.567882537841796875e+00
2.162021636962890625e+01 -5.408503341674804688e+01 1.070048809051513672e+01
2.033282089233398438e+01 -5.491450881958007812e+01 6.612328529357910156e+00
1.940082740783691406e+01 -6.694576263427734375e+01 4.872249126434326172e+00
2.169172286987304688e+01 -4.813148117065429688e+01 1.058503532409667969e+01
2.567980575561523438e+01 -5.268627929687500000e+01 1.393347740173339844e+01
3.007320213317871094e+01 -6.759897613525390625e+01 -2.983800172805786133e+00
2.370051574707031250e+01 -6.695600891113281250e+01 -2.165333986282348633e+00
3.367034912109375000e+01 -6.839823913574218750e+01 -1.010206580162048340e+00
3.330361938476562500e+01 -2.410449218750000000e+01 -3.948678493499755859e+00
3.487218475341796875e+01 -6.722117614746093750e+01 7.661866664886474609e+00
3.540173339843750000e+01 -6.825083923339843750e+01 2.246697187423706055e+00
2.215520095825195312e+01 -5.509727859497070312e+01 2.583217382431030273e+00
1.995361709594726562e+01 -6.720577239990234375e+01 9.247239828109741211e-01
2.459860992431640625e+01 -6.647129058837890625e+01 1.077456855773925781e+01
3.084183692932128906e+01 -6.534474182128906250e+01 1.143126106262207031e+01
2.404282379150390625e+01 -7.211077880859375000e+01 8.998011589050292969e+00
2.965677452087402344e+01 -7.197775268554687500e+01 9.264801025390625000e+00
3.399891281127929688e+01 -7.295318603515625000e+01 5.285490989685058594e+00
3.463805007934570312e+01 -7.250615692138671875e+01 6.623956561088562012e-01
3.304457473754882812e+01 -7.145127868652343750e+01 -2.269811868667602539e+00
2.062409019470214844e+01 -7.225734710693359375e+01 6.792988777160644531e+00
1.883115005493164062e+01 -7.180479431152343750e+01 3.254099369049072266e+00
1.993571472167968750e+01 -6.977812194824218750e+01 -4.564709067344665527e-01
1.942463302612304688e+01 -7.802665710449218750e+01 2.729225397109985352e+00
2.255449485778808594e+01 -7.976947784423828125e+01 4.363585472106933594e+00
3.085587501525878906e+01 -8.857527160644531250e+01 -8.579688072204589844e+00
3.234309768676757812e+01 -8.449257659912109375e+01 -4.521728515625000000e+00
3.083344078063964844e+01 -8.567783355712890625e+01 -3.269131422042846680e+00
2.981918334960937500e+01 -8.964571380615234375e+01 -7.093743801116943359e+00
3.247311782836914062e+01 -8.083171081542968750e+01 7.537569999694824219e-01
3.084040260314941406e+01 -8.272224426269531250e+01 4.269741177558898926e-01
2.754296302795410156e+01 -8.197385406494140625e+01 3.034326076507568359e+00
2.675929832458496094e+01 -8.645384216308593750e+01 -1.565148949623107910e+00
2.214583587646484375e+01 -8.525691223144531250e+01 -6.795686483383178711e-01
2.148344612121582031e+01 -8.963361358642578125e+01 -4.682475566864013672e+00
2.571772384643554688e+01 -9.099981689453125000e+01 -5.369452476501464844e+00
2.396664810180664062e+01 -8.248415374755859375e+01 2.607510089874267578e+00
2.835882186889648438e+01 -9.194921875000000000e+01 -8.934145927429199219e+00
2.812315750122070312e+01 -9.197682189941406250e+01 -1.085817527770996094e+01
2.827988243103027344e+01 -7.957373046875000000e+01 5.034581184387207031e+00
3.419186401367187500e+01 -7.651779937744140625e+01 -8.014227747917175293e-01
3.258189392089843750e+01 -8.323249816894531250e+01 -6.628753662109375000e+00
3.023922729492187500e+01 -8.776418304443359375e+01 -1.065209197998046875e+01
2.665507125854492188e+01 -9.097391510009765625e+01 -1.241140460968017578e+01
3.075799179077148438e+01 -8.209017181396484375e+01 -9.262628555297851562e+00
2.866650962829589844e+01 -8.683152770996093750e+01 -1.218931579589843750e+01
2.544765663146972656e+01 -8.951065826416015625e+01 -1.300565528869628906e+01
2.723347854614257812e+01 -8.089015197753906250e+01 -1.070725154876708984e+01
2.542395401000976562e+01 -8.573890686035156250e+01 -1.302905273437500000e+01
2.903002357482910156e+01 -7.186485290527343750e+01 -4.697220802307128906e+00
3.263724899291992188e+01 -7.391660308837890625e+01 -3.606509447097778320e+00
2.447702217102050781e+01 -8.800774383544921875e+01 -1.319804668426513672e+01
2.444973182678222656e+01 -9.308993530273437500e+01 -1.100408840179443359e+01
2.332290840148925781e+01 -9.039536285400390625e+01 -1.222305488586425781e+01
2.517795372009277344e+01 -9.328326416015625000e+01 -8.462501525878906250e+00
2.028975105285644531e+01 -8.440982055664062500e+01 -1.086421608924865723e+00
1.964338493347167969e+01 -8.905366516113281250e+01 -5.848673820495605469e+00
1.862989234924316406e+01 -8.333170318603515625e+01 -2.442874670028686523e+00
1.845803642272949219e+01 -8.858570861816406250e+01 -7.657314300537109375e+00
2.007175064086914062e+01 -9.186682128906250000e+01 -9.395972251892089844e+00
2.104058456420898438e+01 -9.253699493408203125e+01 -8.328170776367187500e+00
2.946651268005371094e+01 -6.970454406738281250e+01 -3.662028551101684570e+00
2.356124496459960938e+01 -6.906897735595703125e+01 -2.918529272079467773e+00
2.356629180908203125e+01 -7.108911132812500000e+01 -3.868777036666870117e+00
2.253899002075195312e+01 -8.010700988769531250e+01 -9.722570419311523438e+00
1.972431373596191406e+01 -7.214973449707031250e+01 -1.485515356063842773e+00
1.833680343627929688e+01 -7.597644042968750000e+01 5.474301576614379883e-01
1.802451705932617188e+01 -8.178932952880859375e+01 -4.006979942321777344e+00
1.912064552307128906e+01 -8.079541778564453125e+01 -7.143273353576660156e+00
1.805720138549804688e+01 -8.744274902343750000e+01 -8.668874740600585938e+00
1.863240051269531250e+01 -8.517767333984375000e+01 -9.869366645812988281e+00
2.182610130310058594e+01 -8.477725219726562500e+01 -1.216926002502441406e+01
1.980478668212890625e+01 -8.972137451171875000e+01 -1.090223693847656250e+01
2.007104873657226562e+01 -9.090950775146484375e+01 -1.022511768341064453e+01
2.266013908386230469e+01 -8.927485656738281250e+01 -1.291181182861328125e+01
1.942326736450195312e+01 -8.803035736083984375e+01 -1.146532249450683594e+01
2.209380149841308594e+01 -8.816379547119140625e+01 -1.286814594268798828e+01
1.018780803680419922e+01 -4.890798568725585938e+01 1.687106490135192871e+00
4.813786983489990234e+00 -4.778322601318359375e+01 -1.638918638229370117e+00
5.504157543182373047e+00 -4.550680160522460938e+01 -1.801647901535034180e+00
1.144745540618896484e+01 -4.554485702514648438e+01 1.184400677680969238e+00
7.464514255523681641e+00 -4.549994659423828125e+01 1.231215953826904297e+01
1.047151374816894531e+01 -4.766781234741210938e+01 9.867324829101562500e+00
1.214725971221923828e+01 -4.325722503662109375e+01 9.681167602539062500e+00
9.720842361450195312e+00 -3.933524322509765625e+01 1.207765007019042969e+01
2.146476507186889648e+00 -4.559069442749023438e+01 1.236322307586669922e+01
4.583243370056152344e+00 -3.684791183471679688e+01 1.247196769714355469e+01
1.122982978820800781e+01 -3.391056060791015625e+01 9.393305778503417969e+00
1.364734363555908203e+01 -3.903750991821289062e+01 8.402093887329101562e+00
1.713795089721679688e+01 -2.904700279235839844e+01 -4.700742244720458984e+00
1.359513854980468750e+01 -2.404722023010253906e+01 -2.907513856887817383e+00
1.159007072448730469e+01 -4.867193603515625000e+01 5.978262424468994141e+00
1.287761878967285156e+01 -4.505968093872070312e+01 5.851371765136718750e+00
-1.974460244178771973e+00 -3.964073562622070312e+01 -8.621139526367187500e-01
1.252465963363647461e+00 -4.213415527343750000e+01 -2.908803462982177734e+00
3.719301149249076843e-02 -4.336524963378906250e+01 -1.339572310447692871e+00
-2.907755374908447266e+00 -4.149591064453125000e+01 1.237923502922058105e+00
1.393231391906738281e+01 -3.490646362304687500e+01 -1.205629348754882812e+01
7.537075042724609375e+00 -3.501761627197265625e+01 -1.442595672607421875e+01
1.621337509155273438e+01 -3.315278625488281250e+01 -8.157736778259277344e+00
-3.244370222091674805e+00 -3.672232055664062500e+01 3.658269405364990234e+00
-4.190943837165832520e-01 -3.247341918945312500e+01 7.043656349182128906e+00
8.946090936660766602e-01 -2.393742561340332031e+01 -6.406167030334472656e+00
-8.362621068954467773e-01 -2.757819747924804688e+01 -9.289403915405273438e+00
1.390361309051513672e+01 -4.196162414550781250e+01 5.019429206848144531e+00
6.524029731750488281e+00 -4.401818084716796875e+01 -2.824948549270629883e+00
1.207130718231201172e+01 -4.381650543212890625e+01 2.911275029182434082e-01
5.943034648895263672e+00 -3.124377822875976562e+01 9.313608169555664062e+00
-1.205631017684936523e+00 -3.748847579956054688e+01 1.003769111633300781e+01
-7.312748908996582031e+00 -5.969850921630859375e+01 2.984081983566284180e+00
-4.497426986694335938e+00 -4.346681594848632812e+01 5.897922039031982422e+00
-3.427357196807861328e+00 -4.491246795654296875e+01 1.348591804504394531e+00
-6.671081542968750000e+00 -5.946551513671875000e+01 -4.362245202064514160e-01
-3.931919097900390625e+00 -3.998862838745117188e+01 5.797381401062011719e+00
-2.473782062530517578e+00 -4.349553680419921875e+01 1.004362201690673828e+01
5.452921390533447266e+00 -6.182957077026367188e+01 -9.828273653984069824e-01
1.249910235404968262e+00 -5.976082611083984375e+01 -3.346686601638793945e+00
7.505396366119384766e+00 -6.186852264404296875e+01 2.552895307540893555e+00
7.348050117492675781e+00 -2.144874000549316406e+01 -3.851184368133544922e+00
9.019454121589660645e-01 -3.170378494262695312e+01 -1.307341766357421875e+01
4.474190711975097656e+00 -6.242560577392578125e+01 8.158538818359375000e+00
7.028768062591552734e+00 -6.230352783203125000e+01 5.404517173767089844e+00
-4.611818790435791016e-01 -4.593941497802734375e+01 -9.173614382743835449e-01
-3.819137573242187500e+00 -5.925469207763671875e+01 -2.877260684967041016e+00
-5.457277774810791016e+00 -5.956530761718750000e+01 6.727938175201416016e+00
-5.611180067062377930e-01 -6.041250610351562500e+01 9.383783340454101562e+00
-6.561022758483886719e+00 -6.424777984619140625e+01 4.461093425750732422e+00
-1.759211301803588867e+00 -6.543244171142578125e+01 7.370665550231933594e+00
3.351286649703979492e+00 -6.738169097900390625e+01 6.323285102844238281e+00
6.079884529113769531e+00 -6.690377044677734375e+01 3.709925174713134766e+00
6.654127597808837891e+00 -6.588661193847656250e+01 8.701645731925964355e-01
-8.042313575744628906e+00 -6.395952606201171875e+01 7.234786152839660645e-01
-7.128677368164062500e+00 -6.326623535156250000e+01 -2.397180318832397461e+00
-3.802129745483398438e+00 -6.118334197998046875e+01 -3.795048475265502930e+00
-8.323065757751464844e+00 -6.696752929687500000e+01 -2.168606996536254883e+00
-7.252263069152832031e+00 -7.017354583740234375e+01 4.671155810356140137e-01
1.533179283142089844e+00 -8.193525695800781250e+01 -6.655245780944824219e+00
2.181476831436157227e+00 -7.802591705322265625e+01 -3.076330900192260742e+00
1.061042428016662598e+00 -7.832505035400390625e+01 -2.739387273788452148e+00
8.057637512683868408e-02 -8.239174652099609375e+01 -6.154931068420410156e+00
1.530728459358215332e+00 -7.349403381347656250e+01 2.086511850357055664e+00
3.599538207054138184e-01 -7.495008850097656250e+01 9.627956151962280273e-01
-3.054565906524658203e+00 -7.354077148437500000e+01 1.590358138084411621e+00
-3.853379726409912109e+00 -7.847069549560546875e+01 -2.843286514282226562e+00
-8.075617790222167969e+00 -7.507724761962890625e+01 -4.518737316131591797e+00
-7.781782627105712891e+00 -7.910630798339843750e+01 -7.487582206726074219e+00
-4.061744213104248047e+00 -8.261865234375000000e+01 -6.137385368347167969e+00
-6.682835578918457031e+00 -7.224346160888671875e+01 -3.109002411365509033e-01
-9.293287396430969238e-01 -8.412112426757812500e+01 -7.752645015716552734e+00
-6.555382907390594482e-02 -8.439038085937500000e+01 -8.415039062500000000e+00
-2.891053199768066406e+00 -7.150465393066406250e+01 3.367041110992431641e+00
5.023514270782470703e+00 -7.150090026855468750e+01 1.200475335121154785e+00
4.263014316558837891e+00 -7.703565979003906250e+01 -4.408267974853515625e+00
3.285488843917846680e+00 -8.086800384521484375e+01 -7.992575645446777344e+00
1.441797494888305664e+00 -8.358583068847656250e+01 -9.940439224243164062e+00
4.695224285125732422e+00 -7.509440612792968750e+01 -6.666232109069824219e+00
3.562635898590087891e+00 -7.895400238037109375e+01 -9.518167495727539062e+00
1.772591829299926758e+00 -8.071166229248046875e+01 -1.107801532745361328e+01
3.340201854705810547e+00 -7.312118530273437500e+01 -8.559163093566894531e+00
2.275714874267578125e+00 -7.667908477783203125e+01 -1.086472892761230469e+01
4.233839035034179688e+00 -6.586759185791015625e+01 -2.823356151580810547e+00
6.217241287231445312e+00 -6.885039520263671875e+01 -7.399911284446716309e-01
1.166756391525268555e+00 -7.854673767089843750e+01 -1.172508811950683594e+01
-2.966855287551879883e+00 -8.475174713134765625e+01 -9.337430953979492188e+00
-6.754664182662963867e-01 -7.978784179687500000e+01 -1.206322574615478516e+01
-3.393304347991943359e+00 -8.422181701660156250e+01 -8.268907546997070312e+00
-8.711621284484863281e+00 -7.337375640869140625e+01 -5.121862888336181641e+00
-8.301240921020507812e+00 -7.814332580566406250e+01 -9.512048721313476562e+00
-8.347992897033691406e+00 -7.144208526611328125e+01 -6.796445369720458984e+00
-7.863711357116699219e+00 -7.640309143066406250e+01 -1.111787128448486328e+01
-6.736332893371582031e+00 -8.171826171875000000e+01 -1.077336788177490234e+01
-6.724872589111328125e+00 -8.200718688964843750e+01 -9.885933876037597656e+00
4.668732643127441406e+00 -6.364115524291992188e+01 -1.943146944046020508e+00
5.338026881217956543e-01 -6.138008880615234375e+01 -4.046220779418945312e+00
6.115745306015014648e-01 -6.338172531127929688e+01 -5.009230136871337891e+00
-1.687563657760620117e-01 -7.134028625488281250e+01 -1.042565536499023438e+01
-3.538008928298950195e+00 -6.313130950927734375e+01 -5.037009239196777344e+00
-7.045565605163574219e+00 -6.597242736816406250e+01 -4.959927558898925781e+00
-6.779430389404296875e+00 -7.033062744140625000e+01 -8.851726531982421875e+00
-4.025004386901855469e+00 -7.050611877441406250e+01 -1.045576667785644531e+01
-6.378353118896484375e+00 -7.509256744384765625e+01 -1.199651145935058594e+01
-4.449669837951660156e+00 -7.392681884765625000e+01 -1.237285518646240234e+01
-5.295531749725341797e-01 -7.484261322021484375e+01 -1.233888530731201172e+01
-4.828266620635986328e+00 -7.764515686035156250e+01 -1.307253551483154297e+01
-5.943595409393310547e+00 -7.964151000976562500e+01 -1.215983009338378906e+01
-9.341580271720886230e-01 -7.821362304687500000e+01 -1.257351398468017578e+01
-3.526423215866088867e+00 -7.641954803466796875e+01 -1.301373291015625000e+01
-9.594751596450805664e-01 -7.732379150390625000e+01 -1.279057216644287109e+01
3.423110485076904297e+00 -3.326835250854492188e+01 -1.469260978698730469e+01
-1.509745216369628906e+01 -3.505949783325195312e+01 -5.347842574119567871e-01
-1.786338806152343750e+01 -3.690313720703125000e+01 -3.395758867263793945e+00
-1.830242347717285156e+01 -3.537728881835937500e+01 -5.618287563323974609e+00
-1.483808612823486328e+01 -3.319842910766601562e+01 -3.552453994750976562e+00
-1.875644874572753906e+01 -2.686984825134277344e+01 4.047190666198730469e+00
-1.589754295349121094e+01 -3.000860214233398438e+01 3.932223081588745117e+00
-1.427486896514892578e+01 -2.671145629882812500e+01 1.088710427284240723e+00
-1.689612197875976562e+01 -2.315996360778808594e+01 1.071274518966674805e+00
-2.349603843688964844e+01 -2.619040489196777344e+01 2.675312519073486328e+00
-2.223225021362304688e+01 -2.215265083312988281e+01 -2.824424505233764648e-01
-1.573891258239746094e+01 -2.104446792602539062e+01 -1.472296357154846191e+00
-1.280315208435058594e+01 -2.477454566955566406e+01 -1.743377447128295898e+00
-6.758732795715332031e+00 -1.951740074157714844e+01 -1.586873340606689453e+01
-9.474096298217773438e+00 -1.560659790039062500e+01 -1.803540992736816406e+01
-2.179232597351074219e+01 -2.534899139404296875e+01 -2.835531616210937500e+01
-1.786843872070312500e+01 -2.956590270996093750e+01 -2.859867477416992188e+01
-1.950491714477539062e+01 -2.937627792358398438e+01 -2.105607986450195312e+01
-2.247323989868164062e+01 -2.621492958068847656e+01 -2.177120590209960938e+01
-1.461767387390136719e+01 -3.270416259765625000e+01 2.178160190582275391e+00
-1.343830871582031250e+01 -3.043293380737304688e+01 -8.228381276130676270e-01
-2.665287208557128906e+01 -3.016867065429687500e+01 -9.851039886474609375e+00
-2.333442115783691406e+01 -3.274697875976562500e+01 -9.771740913391113281e+00
-2.244791030883789062e+01 -3.531058502197265625e+01 -7.409266471862792969e+00
-2.653752517700195312e+01 -3.371882247924804688e+01 -7.555413722991943359e+00
-1.318317890167236328e+01 -3.099671554565429688e+01 -2.599556541442871094e+01
-8.897747039794921875e+00 -3.087589073181152344e+01 -2.425048828125000000e+01
-1.004513072967529297e+01 -2.976922988891601562e+01 -1.962097358703613281e+01
-1.545547485351562500e+01 -3.041871643066406250e+01 -1.935273551940917969e+01
-6.875009059906005859e+00 -2.722421836853027344e+01 -1.694749832153320312e+01
-2.790216064453125000e+01 -2.695825767517089844e+01 -8.600460052490234375e+00
-2.609884262084960938e+01 -2.221751403808593750e+01 -6.108769416809082031e+00
-2.167296981811523438e+01 -1.726979446411132812e+01 -2.262301063537597656e+01
-2.323794937133789062e+01 -2.158144760131835938e+01 -2.317799377441406250e+01
-1.266127300262451172e+01 -2.865144729614257812e+01 -3.004388809204101562e+00
-1.910677719116210938e+01 -3.348015213012695312e+01 -8.175317764282226562e+00
-1.509618854522705078e+01 -3.189096641540527344e+01 -5.931455135345458984e+00
-2.125092315673828125e+01 -1.977202987670898438e+01 -3.093143463134765625e+00
-2.732635498046875000e+01 -2.526155662536621094e+01 -3.133857727050781250e+00
-2.931505775451660156e+01 -4.069248199462890625e+01 4.428822398185729980e-01
-2.884775352478027344e+01 -3.326586151123046875e+01 -4.219974517822265625e+00
-2.618142700195312500e+01 -3.660002899169921875e+01 -5.635126113891601562e+00
-2.759333419799804688e+01 -4.233974456787109375e+01 -9.182888269424438477e-01
-2.859655380249023438e+01 -2.999466514587402344e+01 -6.161576271057128906e+00
-2.811491966247558594e+01 -2.920045471191406250e+01 -5.361214876174926758e-01
-1.649325561523437500e+01 -4.186775588989257812e+01 3.930760622024536133e+00
-2.001597976684570312e+01 -4.320233917236328125e+01 -1.651871204376220703e-01
-1.623457908630371094e+01 -4.016464233398437500e+01 6.571916103363037109e+00
-1.546643066406250000e+01 -1.373634338378906250e+01 -2.027429771423339844e+01
-2.137135887145996094e+01 -3.646553802490234375e+01 9.517198562622070312e+00
-1.782553672790527344e+01 -3.870084381103515625e+01 8.895272254943847656e+00
-2.186540985107421875e+01 -3.768912506103515625e+01 -5.163617610931396484e+00
-2.434782028198242188e+01 -4.329542922973632812e+01 -1.435303926467895508e+00
-2.959250831604003906e+01 -3.824443435668945312e+01 3.416784763336181641e+00
-2.633442115783691406e+01 -3.567045211791992188e+01 7.415817260742187500e+00
-2.955764198303222656e+01 -4.254956054687500000e+01 5.399662971496582031e+00
-2.622959518432617188e+01 -3.996875762939453125e+01 9.277578353881835938e+00
-2.092926979064941406e+01 -4.119551467895507812e+01 1.091140937805175781e+01
-1.771443557739257812e+01 -4.199021911621093750e+01 9.606623649597167969e+00
-1.629180717468261719e+01 -4.315975952148437500e+01 7.290384769439697266e+00
-2.921643638610839844e+01 -4.440455245971679688e+01 1.903492212295532227e+00
-2.747446250915527344e+01 -4.542217254638671875e+01 1.416148543357849121e-01
-2.433863258361816406e+01 -4.553314971923828125e+01 -6.764942407608032227e-01
-2.901591491699218750e+01 -4.826770782470703125e+01 3.202791213989257812e+00
-2.880133438110351562e+01 -4.804941940307617188e+01 7.223541259765625000e+00
-1.926679229736328125e+01 -5.683661651611328125e+01 1.082303905487060547e+01
-1.919686317443847656e+01 -5.279419708251953125e+01 1.078634834289550781e+01
-2.026116180419921875e+01 -5.267020416259765625e+01 1.115517997741699219e+01
-2.000156211853027344e+01 -5.677816009521484375e+01 1.128061199188232422e+01
-2.057845497131347656e+01 -4.736425781250000000e+01 1.116782283782958984e+01
-2.168329238891601562e+01 -4.856526184082031250e+01 1.125853538513183594e+01
-2.507684326171875000e+01 -4.724447631835937500e+01 1.061240863800048828e+01
-2.432957077026367188e+01 -5.265183258056640625e+01 1.090427875518798828e+01
-2.790225601196289062e+01 -5.380175018310546875e+01 7.639909267425537109e+00
-2.673945236206054688e+01 -5.746704101562500000e+01 8.440980911254882812e+00
-2.378676223754882812e+01 -5.641328811645507812e+01 1.135649394989013672e+01
-2.789505577087402344e+01 -4.930474472045898438e+01 8.478132247924804688e+00
-2.090876197814941406e+01 -5.906878662109375000e+01 1.162051868438720703e+01
-2.059225845336914062e+01 -5.980801391601562500e+01 1.122995948791503906e+01
-2.517878532409667969e+01 -4.528653335571289062e+01 1.055418872833251953e+01
-1.740813255310058594e+01 -4.690407943725585938e+01 9.594648361206054688e+00
-1.754323196411132812e+01 -5.382562255859375000e+01 9.355954170227050781e+00
-1.854957962036132812e+01 -5.842515945434570312e+01 9.707067489624023438e+00
-2.016502761840820312e+01 -6.039142608642578125e+01 9.396362304687500000e+00
-1.679851150512695312e+01 -5.342673873901367188e+01 7.269210815429687500e+00
-1.812405395507812500e+01 -5.854824066162109375e+01 7.925572872161865234e+00
-1.964122009277343750e+01 -6.032893753051757812e+01 7.315046787261962891e+00
-1.757681846618652344e+01 -5.328761672973632812e+01 4.458902359008789062e+00
-1.853335762023925781e+01 -5.829084396362304688e+01 5.847652435302734375e+00
-1.719980621337890625e+01 -4.699581909179687500e+01 3.506445407867431641e+00
-1.633622169494628906e+01 -4.695312118530273438e+01 6.974742889404296875e+00
