7.861755371093750000e+00 -3.570012664794921875e+01 -2.001720809936523438e+01
2.162423324584960938e+01 -3.451201248168945312e+01 -1.958531570434570312e+01
2.295681381225585938e+01 -2.927434730529785156e+01 -2.915455627441406250e+01
-3.870564937591552734e+00 -5.050975418090820312e+01 -5.410991668701171875e+01
-5.267651081085205078e+00 -5.323471069335937500e+01 -4.538191604614257812e+01
-8.361863136291503906e+00 -5.407401657104492188e+01 -4.823183441162109375e+01
1.276457405090332031e+01 -5.632596969604492188e+01 -3.339844894409179688e+01
1.249911689758300781e+01 -5.793976974487304688e+01 -2.670502281188964844e+01
8.849859237670898438e+00 -5.664741134643554688e+01 -2.926691627502441406e+01
8.533432960510253906e+00 -5.475755691528320312e+01 -3.607269287109375000e+01
-2.962069320678710938e+01 -3.124506759643554688e+01 -8.128688049316406250e+01
-2.958384704589843750e+01 -4.074655914306640625e+01 -8.669661712646484375e+01
2.535745048522949219e+01 -7.980018615722656250e+01 -4.013441562652587891e+00
2.586596107482910156e+01 -7.603971862792968750e+01 -4.824360847473144531e+00
-1.981250166893005371e+00 -4.843257904052734375e+01 -6.377755737304687500e+01
2.468180465698242188e+01 -2.483425712585449219e+01 -4.198750305175781250e+01
-2.056287080049514771e-01 -4.851097488403320312e+01 -7.351348876953125000e+01
-2.803330039978027344e+01 -4.626320648193359375e+01 -4.360977172851562500e+01
-2.849529075622558594e+01 -5.333936691284179688e+01 -4.596139144897460938e+01
-2.544368362426757812e+01 -5.718568038940429688e+01 -4.415621948242187500e+01
-2.691633033752441406e+01 -5.328031158447265625e+01 -3.990391159057617188e+01
8.646187782287597656e+00 -7.008842468261718750e+01 -6.298323631286621094e+00
1.159938430786132812e+01 -7.283042907714843750e+01 -9.366003036499023438e+00
1.148240947723388672e+01 -7.643144226074218750e+01 -7.580617427825927734e+00
8.268025398254394531e+00 -7.438849639892578125e+01 -3.926111936569213867e+00
2.193717575073242188e+01 -6.011580657958984375e+01 -2.455818557739257812e+01
2.752667808532714844e+01 -5.866030883789062500e+01 -2.411828994750976562e+01
2.552008056640625000e+01 -6.219495773315429688e+01 -1.993274879455566406e+01
2.011012649536132812e+01 -6.251311111450195312e+01 -2.065877914428710938e+01
3.067065811157226562e+01 -5.643791961669921875e+01 -2.034375953674316406e+01
2.921395874023437500e+01 -6.017143630981445312e+01 -1.688220596313476562e+01
8.867881774902343750e+00 -6.758576965332031250e+01 -1.841306686401367188e+00
1.330833435058593750e+01 -6.572060394287109375e+01 2.577384710311889648e+00
1.372217845916748047e+01 -5.305617523193359375e+01 -7.504749298095703125e+00
9.923235893249511719e+00 -5.803224945068359375e+01 -1.019854736328125000e+01
-9.463969230651855469e+00 -1.468497657775878906e+01 -7.246907806396484375e+01
-1.740065956115722656e+01 -1.754662895202636719e+01 -7.803082275390625000e+01
-2.196095275878906250e+01 -2.429779052734375000e+01 -6.733867645263671875e+01
-2.723275375366210938e+01 -3.145207786560058594e+01 -5.723384857177734375e+01
-3.017586135864257812e+01 -4.031774139404296875e+01 -4.853326797485351562e+01
-2.366130638122558594e+01 -3.461755752563476562e+01 -4.103903198242187500e+01
-2.628246498107910156e+01 -2.647325515747070312e+01 -7.295400238037109375e+01
7.079785823822021484e+00 -4.978385543823242188e+01 -1.534806823730468750e+01
1.301385498046875000e+01 -4.424272918701171875e+01 -1.470482349395751953e+01
6.123321533203125000e+00 -4.212435913085937500e+01 -1.648536872863769531e+01
-5.454896450042724609e+00 -5.005678558349609375e+01 -7.704836273193359375e+01
2.674258995056152344e+01 -7.216893005371093750e+01 -6.214243888854980469e+00
2.807487869262695312e+01 -8.244954109191894531e+00 -8.708736419677734375e+01
1.568467521667480469e+01 -4.213800430297851562e+00 -8.731189727783203125e+01
1.674511718750000000e+01 -7.182715415954589844e+00 -8.162702941894531250e+01
3.019585609436035156e+01 -1.241962718963623047e+01 -8.124768829345703125e+01
1.808685111999511719e+01 -7.432424163818359375e+01 -1.140788459777832031e+01
2.379536819458007812e+01 -7.402970123291015625e+01 -1.029485321044921875e+01
-1.780489730834960938e+01 -6.049670410156250000e+01 -5.066160202026367188e+01
-1.812969779968261719e+01 -6.072840118408203125e+01 -4.506749343872070312e+01
-2.084097862243652344e+01 -6.115736007690429688e+01 -4.531460571289062500e+01
-2.136770629882812500e+01 -6.330918502807617188e+01 -5.117913055419921875e+01
-2.073798942565917969e+01 -1.918889236450195312e+01 -8.231612396240234375e+01
-3.771461486816406250e+01 -5.410184478759765625e+01 -6.301240921020507812e+01
-3.612328338623046875e+01 -4.723926544189453125e+01 -5.536180877685546875e+01
-1.347260284423828125e+01 -1.257219600677490234e+01 -8.679011535644531250e+01
-6.179489612579345703e+00 -1.002134037017822266e+01 -8.210568237304687500e+01
-4.491398811340332031e+00 -6.653105258941650391e+00 -8.831562805175781250e+01
-1.367010974884033203e+01 -3.720536041259765625e+01 -2.934091186523437500e+01
-3.259101867675781250e+00 -1.418932533264160156e+01 -6.699200439453125000e+01
2.191157266497612000e-02 -9.533192634582519531e+00 -7.816014099121093750e+01
2.253585338592529297e+00 -5.726063728332519531e+00 -8.570498657226562500e+01
3.140538930892944336e+00 -2.159732341766357422e+00 -9.058415985107421875e+01
-4.285126209259033203e+00 -3.643597126007080078e+00 -9.316208648681640625e+01
1.855982589721679688e+01 -6.645791625976562500e+01 3.418444156646728516e+00
1.274255847930908203e+01 -7.151438903808593750e+01 5.280786514282226562e+00
-3.859027147293090820e+00 -3.198886811733245850e-01 -9.940087890625000000e+01
4.047527313232421875e+00 1.366919636726379395e+00 -9.591865539550781250e+01
8.226283073425292969e+00 -9.758034706115722656e+00 -7.425121307373046875e+01
1.834347343444824219e+01 -1.185996246337890625e+01 -7.035725402832031250e+01
4.688416004180908203e+00 -1.380975055694580078e+01 -6.329692459106445312e+01
1.458874225616455078e+01 -1.572495460510253906e+01 -5.823994827270507812e+01
-4.784821987152099609e+00 -2.985004234313964844e+01 -2.561026382446289062e+01
1.034686470031738281e+01 -8.969374847412109375e+01 3.987910509109497070e+00
8.966084480285644531e+00 -7.862731933593750000e+01 2.701169252395629883e+00
8.262619018554687500e+00 -7.962045288085937500e+01 -2.030215263366699219e+00
9.061582565307617188e+00 -9.019321441650390625e+01 6.358551383018493652e-01
8.643945693969726562e+00 -7.268991088867187500e+01 8.781601190567016602e-01
1.284681892395019531e+01 -7.701107025146484375e+01 6.255172252655029297e+00
2.783735656738281250e+01 -2.121460151672363281e+01 -5.528775787353515625e+01
7.913084506988525391e+00 -5.710535812377929688e+01 -2.252930641174316406e+01
3.300952911376953125e+01 -1.922070693969726562e+01 -6.927546691894531250e+01
3.850433349609375000e+01 -3.224868392944335938e+01 -5.037064743041992188e+01
4.192356109619140625e+01 -3.253567886352539062e+01 -6.183691406250000000e+01
3.868198013305664062e+01 -2.045436477661132812e+01 -8.415014648437500000e+01
4.328203201293945312e+01 -3.077953529357910156e+01 -7.578843688964843750e+01
3.571862030029296875e+01 -1.185402488708496094e+01 -9.554826354980468750e+01
3.645447540283203125e+01 -1.572804069519042969e+01 -8.936440277099609375e+01
4.657236862182617188e+01 -4.374985122680664062e+01 -6.863032531738281250e+01
2.065430068969726562e+01 -8.930384826660156250e+01 -5.684691429138183594e+00
1.505018901824951172e+01 -8.918492126464843750e+01 -6.055534362792968750e+00
2.774651718139648438e+01 -4.654015064239501953e+00 -9.281197357177734375e+01
2.413634109497070312e+01 -7.031074523925781250e+01 -6.771563720703125000e+01
-1.600101113319396973e+00 -4.967020797729492188e+01 -8.518235778808593750e+01
2.006682634353637695e+00 -4.869164276123046875e+01 -8.227455139160156250e+01
-1.656645965576171875e+01 -4.829912567138671875e+01 -9.542166900634765625e+01
-6.943799018859863281e+00 -5.086858367919921875e+01 -8.991557312011718750e+01
2.427012252807617188e+01 -8.905802154541015625e+01 -2.885752201080322266e+00
-1.027094936370849609e+01 -5.746180343627929688e+01 -2.606848716735839844e+01
-1.076440429687500000e+01 -5.626993942260742188e+01 -2.808861351013183594e+01
3.885350418090820312e+01 -7.390348052978515625e+01 -7.128202819824218750e+01
3.963367462158203125e+01 -7.785402679443359375e+01 -6.443241882324218750e+01
4.876157760620117188e+01 -7.067671203613281250e+01 -6.063330078125000000e+01
4.539332962036132812e+01 -7.536097717285156250e+01 -6.360018157958984375e+01
4.546032714843750000e+01 -6.929107666015625000e+01 -7.107076263427734375e+01
4.874311447143554688e+01 -6.348863601684570312e+01 -6.785826110839843750e+01
5.207309722900390625e+00 -4.834004592895507812e+01 -9.208020019531250000e+01
2.277608394622802734e+00 -4.873174285888671875e+01 -9.323561096191406250e+01
-2.577851295471191406e+01 -2.730508804321289062e+01 -9.024919128417968750e+01
-2.510299301147460938e+01 -3.808984375000000000e+01 -9.462192535400390625e+01
3.080664634704589844e+01 -5.204655838012695312e+01 -1.639242172241210938e+01
2.899807739257812500e+01 -4.100185775756835938e+01 -1.853521347045898438e+01
2.722006225585937500e+01 -4.715939331054687500e+01 -1.301382637023925781e+01
2.045487403869628906e+01 -5.079681015014648438e+01 -7.372699737548828125e+00
7.116624355316162109e+00 -5.513871383666992188e+01 -1.714825057983398438e+01
9.887174606323242188e+00 -5.388309478759765625e+01 -1.546227741241455078e+01
1.857832145690917969e+01 -5.115668487548828125e+01 -9.842884826660156250e+01
1.145425701141357422e+01 -5.202278518676757812e+01 -8.750392150878906250e+01
2.893897056579589844e+01 -6.956053924560546875e+01 -5.431843185424804688e+01
3.191420364379882812e+01 -6.867412567138671875e+01 -4.848656082153320312e+01
2.344681739807128906e+00 -5.321376419067382812e+01 -4.100865936279296875e+01
-1.235272502899169922e+01 -4.437189865112304688e+01 -2.200038528442382812e+01
-5.431651115417480469e+00 -3.809259414672851562e+01 -1.810181999206542969e+01
1.446041822433471680e+00 -5.557218170166015625e+01 -3.267661666870117188e+01
2.354501724243164062e+01 -8.898052978515625000e+01 4.193604469299316406e+00
2.505382537841796875e+01 -8.913765716552734375e+01 2.586065530776977539e-01
2.118096351623535156e+01 -4.359656524658203125e+01 -1.259870147705078125e+01
-1.367003822326660156e+01 -5.649536132812500000e+01 -5.526298904418945312e+01
-1.624856185913085938e+01 -4.394958877563476562e+01 -2.862645339965820312e+01
-1.309739112854003906e+01 -5.181538772583007812e+01 -2.380195236206054688e+01
-3.421434020996093750e+01 -5.746101760864257812e+01 -6.854238891601562500e+01
1.622343063354492188e+01 -5.120116472244262695e-01 -9.317289733886718750e+01
1.100070953369140625e+01 -8.107149505615234375e+01 -5.827315330505371094e+00
1.062561321258544922e+01 -8.909582519531250000e+01 -4.028066635131835938e+00
1.340196704864501953e+01 -8.854787445068359375e+01 6.376861572265625000e+00
1.893939590454101562e+01 -8.765402984619140625e+01 6.992201328277587891e+00
-1.974319458007812500e+01 -3.656144332885742188e+01 -1.013833312988281250e+02
3.857998609542846680e+00 -4.841815185546875000e+01 -8.014745330810546875e+01
4.815180206298828125e+01 -5.395106124877929688e+01 -6.381082916259765625e+01
4.891928863525390625e+01 -6.467079925537109375e+01 -5.705298995971679688e+01
4.084085822105407715e-01 -5.713176345825195312e+01 -2.680528259277343750e+01
-3.183710670471191406e+01 -4.792885589599609375e+01 -4.914418792724609375e+01
-2.441979217529296875e+01 -4.255770111083984375e+01 -3.621494293212890625e+01
-2.465667724609375000e+01 -5.008448028564453125e+01 -3.255424880981445312e+01
-1.960831260681152344e+01 -5.131549835205078125e+01 -2.746695518493652344e+01
-1.425863075256347656e+01 -5.430469512939453125e+01 -2.538426589965820312e+01
1.314089393615722656e+01 -9.384791564941406250e+01 5.906669616699218750e+00
1.853628921508789062e+01 -9.301553344726562500e+01 6.918565273284912109e+00
2.316049766540527344e+01 -9.424251556396484375e+01 4.380395412445068359e+00
2.477307128906250000e+01 -9.396220397949218750e+01 8.966541290283203125e-01
2.399963188171386719e+01 -9.266341400146484375e+01 -2.781891345977783203e+00
1.035629749298095703e+01 -9.500616455078125000e+01 3.284489393234252930e+00
9.540167808532714844e+00 -9.541548156738281250e+01 1.269220262765884399e-01
1.088361740112304688e+01 -9.282382202148437500e+01 -3.883317470550537109e+00
1.040566921234130859e+01 -1.000444488525390625e+02 1.862243056297302246e+00
1.353547668457031250e+01 -1.025720977783203125e+02 4.082948684692382812e+00
2.406053352355957031e+01 -1.078602142333984375e+02 -1.878709495067596436e-01
2.305794525146484375e+01 -1.032022323608398438e+02 2.994118213653564453e+00
2.194521713256835938e+01 -1.055818862915039062e+02 2.997911930084228516e+00
2.233600044250488281e+01 -1.100877838134765625e+02 8.361295461654663086e-01
2.155372238159179688e+01 -1.144960479736328125e+02 -7.872142195701599121e-01
2.328745079040527344e+01 -1.126155014038085938e+02 -2.113080501556396484e+00
1.860621833801269531e+01 -1.035534286499023438e+02 4.789898872375488281e+00
1.853475570678710938e+01 -1.097043914794921875e+02 2.103100538253784180e+00
1.456167411804199219e+01 -1.093810882568359375e+02 1.320940375328063965e+00
1.486723041534423828e+01 -1.140851058959960938e+02 -6.960246562957763672e-01
1.800087738037109375e+01 -1.144585571289062500e+02 1.986432522535324097e-01
1.501123523712158203e+01 -1.052984771728515625e+02 3.516951084136962891e+00
1.844066810607910156e+01 -1.012300643920898438e+02 5.564043998718261719e+00
2.149606704711914062e+01 -1.165350341796875000e+02 -3.468810558319091797e+00
2.051588058471679688e+01 -1.167970352172851562e+02 -1.628583669662475586e+00
1.755954551696777344e+01 -1.169820175170898438e+02 -1.259595394134521484e+00
1.721564102172851562e+01 -1.185107269287109375e+02 -3.774109363555908203e+00
2.486956214904785156e+01 -9.893892669677734375e+01 1.958713084459304810e-01
2.449943161010742188e+01 -1.069769287109375000e+02 -2.034302234649658203e+00
2.326086997985839844e+01 -1.118824844360351562e+02 -4.315930843353271484e+00
2.114170074462890625e+01 -1.156493148803710938e+02 -5.425940513610839844e+00
2.338842773437500000e+01 -1.070844879150390625e+02 -4.994863033294677734e+00
2.206322479248046875e+01 -1.112577667236328125e+02 -6.161429405212402344e+00
1.989402389526367188e+01 -1.141245346069335938e+02 -6.838606834411621094e+00
2.073393440246582031e+01 -1.071296539306640625e+02 -7.101218223571777344e+00
1.975861167907714844e+01 -1.109578857421875000e+02 -7.554972648620605469e+00
2.131544113159179688e+01 -9.531439971923828125e+01 -5.129336357116699219e+00
2.404678344726562500e+01 -9.572120666503906250e+01 -2.769382953643798828e+00
1.896192169189453125e+01 -1.131114501953125000e+02 -7.539547920227050781e+00
1.627247810363769531e+01 -1.181130981445312500e+02 -5.792336940765380859e+00
1.189200401306152344e+01 -1.073051986694335938e+02 4.561033844947814941e-01
1.277834701538085938e+01 -1.134543228149414062e+02 -2.346635341644287109e+00
1.078697967529296875e+01 -1.065592269897460938e+02 -1.096320271492004395e+00
1.198673439025878906e+01 -1.126487045288085938e+02 -3.799597263336181641e+00
1.384369087219238281e+01 -1.167501068115234375e+02 -3.661157608032226562e+00
1.505243396759033203e+01 -1.163971710205078125e+02 -1.890619993209838867e+00
2.046413040161132812e+01 -9.161267089843750000e+01 -5.491603851318359375e+00
1.456127738952636719e+01 -9.170042419433593750e+01 -5.875103950500488281e+00
1.554974365234375000e+01 -9.503153991699218750e+01 -6.007504463195800781e+00
1.658734130859375000e+01 -1.067767105102539062e+02 -7.602541446685791016e+00
1.163834953308105469e+01 -9.639202117919921875e+01 -4.361330032348632812e+00
9.947851181030273438e+00 -1.000602645874023438e+02 -1.313243627548217773e+00
1.074231147766113281e+01 -1.067501602172851562e+02 -3.521583080291748047e+00
1.225852966308593750e+01 -1.065094451904296875e+02 -5.816557884216308594e+00
1.200812816619873047e+01 -1.115025405883789062e+02 -5.374126911163330078e+00
1.335927295684814453e+01 -1.107941436767578125e+02 -6.816201210021972656e+00
1.654750061035156250e+01 -1.108735351562500000e+02 -7.902622222900390625e+00
1.374073600769042969e+01 -1.147135467529296875e+02 -6.430335998535156250e+00
1.332913970947265625e+01 -1.161890869140625000e+02 -4.994378566741943359e+00
1.664599037170410156e+01 -1.159598999023437500e+02 -7.044641017913818359e+00
1.432650470733642578e+01 -1.134015274047851562e+02 -7.138859748840332031e+00
1.681754493713378906e+01 -1.139036026000976562e+02 -7.656388759613037109e+00
-5.589515686035156250e+00 -7.875655364990234375e+01 2.587431192398071289e+00
-1.080752086639404297e+01 -8.043369293212890625e+01 -1.291526556015014648e+00
-8.849499702453613281e+00 -7.650358581542968750e+01 -3.931667327880859375e+00
-4.564690589904785156e+00 -7.506884002685546875e+01 -5.900877714157104492e-02
-9.653037071228027344e+00 -7.144541168212890625e+01 1.025385093688964844e+01
-5.785790443420410156e+00 -7.407049560546875000e+01 8.498506546020507812e+00
-5.156408786773681641e+00 -7.005778503417968750e+01 6.615449428558349609e+00
-9.676184654235839844e+00 -6.683146667480468750e+01 7.974635124206542969e+00
-1.503625679016113281e+01 -7.030639648437500000e+01 9.291376113891601562e+00
-1.503631114959716797e+01 -6.553396606445312500e+01 6.126802921295166016e+00
-8.664616584777832031e+00 -6.256357955932617188e+01 5.343003273010253906e+00
-4.032831668853759766e+00 -6.579428863525390625e+01 3.854197740554809570e+00
2.790046215057373047e+00 -5.274537277221679688e+01 -1.087097454071044922e+01
-1.432159185409545898e+00 -4.807512664794921875e+01 -8.966974258422851562e+00
-6.813293457031250000e+00 -5.997231292724609375e+01 -2.258779525756835938e+01
-1.014722919464111328e+01 -5.949834060668945312e+01 -2.143666458129882812e+01
-4.636945247650146484e+00 -7.673374176025390625e+01 5.634118556976318359e+00
-3.725311756134033203e+00 -7.285678863525390625e+01 3.794847488403320312e+00
-1.603917694091796875e+01 -7.166680145263671875e+01 -8.100069999694824219e+00
-1.148509216308593750e+01 -7.323499298095703125e+01 -8.202265739440917969e+00
-1.365312767028808594e+01 -7.650459289550781250e+01 -5.368379116058349609e+00
-1.825110435485839844e+01 -7.444969177246093750e+01 -4.589560508728027344e+00
3.152176618576049805e+00 -5.811985015869140625e+01 -1.755690002441406250e+01
-1.190400838851928711e+00 -5.960709381103515625e+01 -2.089188766479492188e+01
3.701962232589721680e+00 -5.635025024414062500e+01 -1.402166271209716797e+01
-1.930725479125976562e+01 -6.836716461181640625e+01 -5.503280162811279297e+00
-1.947970962524414062e+01 -6.420704650878906250e+01 -1.316863298416137695e+00
-1.417550373077392578e+01 -5.032746124267578125e+01 -1.431178760528564453e+01
-1.450536155700683594e+01 -5.568230056762695312e+01 -1.829209518432617188e+01
-2.576534748077392578e+00 -6.910615539550781250e+01 9.801891446113586426e-01
-6.443774223327636719e+00 -7.317301940917968750e+01 -6.137206077575683594e+00
-3.176521301269531250e+00 -7.173965454101562500e+01 -2.924314022064208984e+00
-1.473363494873046875e+01 -6.153253173828125000e+01 3.097748279571533203e+00
-2.003229141235351562e+01 -6.821417236328125000e+01 2.277556180953979492e+00
-2.279376983642578125e+01 -8.510856628417968750e+01 9.286424636840820312e+00
-2.135079002380371094e+01 -7.544778442382812500e+01 1.568501830101013184e+00
-1.962495803833007812e+01 -7.824617004394531250e+01 -1.153922080993652344e+00
-2.216107940673828125e+01 -8.808118438720703125e+01 6.696194648742675781e+00
-2.060485839843750000e+01 -7.164596557617187500e+01 -1.605633139610290527e+00
-2.013981246948242188e+01 -7.213397216796875000e+01 5.444137573242187500e+00
-1.005249404907226562e+01 -9.071660614013671875e+01 9.065013885498046875e+00
-1.560980224609375000e+01 -9.141954040527343750e+01 5.727428436279296875e+00
-8.112001419067382812e+00 -8.934657287597656250e+01 1.223970699310302734e+01
-8.812850952148437500e+00 -4.663552856445312500e+01 -1.026179218292236328e+01
-1.116821289062500000e+01 -8.293241882324218750e+01 1.632700920104980469e+01
-8.142805099487304688e+00 -8.688499450683593750e+01 1.434309959411621094e+01
-1.577791786193847656e+01 -8.009580993652343750e+01 -2.457404375076293945e+00
-1.993402290344238281e+01 -9.064662170410156250e+01 5.475915431976318359e+00
-2.142111587524414062e+01 -8.272159576416015625e+01 1.223556041717529297e+01
-1.649487686157226562e+01 -8.029740142822265625e+01 1.525196075439453125e+01
-2.185112953186035156e+01 -8.774330139160156250e+01 1.515855121612548828e+01
-1.737675857543945312e+01 -8.614202117919921875e+01 1.823968887329101562e+01
-1.170669555664062500e+01 -8.838033294677734375e+01 1.878105163574218750e+01
-8.892749786376953125e+00 -9.094460296630859375e+01 1.634194374084472656e+01
-8.712873458862304688e+00 -9.238742828369140625e+01 1.359180927276611328e+01
-2.326696395874023438e+01 -9.010807037353515625e+01 1.237344455718994141e+01
-2.286358261108398438e+01 -9.261489105224609375e+01 9.532587051391601562e+00
-2.003827285766601562e+01 -9.335939788818359375e+01 6.845095634460449219e+00
-2.312224388122558594e+01 -9.700651550292968750e+01 1.428701305389404297e+01
-2.173557662963867188e+01 -9.641678619384765625e+01 1.785594558715820312e+01
-8.689277648925781250e+00 -1.075933074951171875e+02 2.044785118103027344e+01
-9.398782730102539062e+00 -1.020799102783203125e+02 2.086565399169921875e+01
-1.138416004180908203e+01 -1.024868927001953125e+02 2.181577301025390625e+01
-1.035664367675781250e+01 -1.076485366821289062e+02 2.175115394592285156e+01
-1.180592155456542969e+01 -9.663136291503906250e+01 2.139905357360839844e+01
-1.317232513427734375e+01 -9.843148803710937500e+01 2.188362693786621094e+01
-1.728857994079589844e+01 -9.734657287597656250e+01 2.129829406738281250e+01
-1.581621074676513672e+01 -1.030640258789062500e+02 2.152875709533691406e+01
-2.002192306518554688e+01 -1.030629272460937500e+02 1.894597244262695312e+01
-1.880007362365722656e+01 -1.084709014892578125e+02 1.953373718261718750e+01
-1.492360115051269531e+01 -1.085824356079101562e+02 2.200344276428222656e+01
-2.001262283325195312e+01 -9.889526367187500000e+01 1.963782501220703125e+01
-1.068499755859375000e+01 -1.107286758422851562e+02 2.159465026855468750e+01
-9.839408874511718750e+00 -1.122105941772460938e+02 2.030989265441894531e+01
-1.750760269165039062e+01 -9.437963867187500000e+01 2.099369239807128906e+01
-9.153653144836425781e+00 -9.442619323730468750e+01 1.821854209899902344e+01
-8.008206367492675781e+00 -1.025139617919921875e+02 1.883759689331054688e+01
-8.078461647033691406e+00 -1.085989608764648438e+02 1.830253601074218750e+01
-9.975677490234375000e+00 -1.135561294555664062e+02 1.802832412719726562e+01
-8.077396392822265625e+00 -1.039871673583984375e+02 1.578392219543457031e+01
-8.491403579711914062e+00 -1.095341339111328125e+02 1.606185340881347656e+01
-1.055603599548339844e+01 -1.132535400390625000e+02 1.605338478088378906e+01
-1.029935646057128906e+01 -1.052677841186523438e+02 1.255654144287109375e+01
-1.059301090240478516e+01 -1.104684448242187500e+02 1.343870830535888672e+01
-1.119026184082031250e+01 -9.537979888916015625e+01 1.075355529785156250e+01
-8.797556877136230469e+00 -9.489113616943359375e+01 1.446468544006347656e+01
-1.123770332336425781e+01 -1.125173187255859375e+02 1.448183250427246094e+01
-1.277980995178222656e+01 -1.150541534423828125e+02 1.979504966735839844e+01
-1.217069816589355469e+01 -1.157281036376953125e+02 1.662176895141601562e+01
-1.367180061340332031e+01 -1.125511245727539062e+02 2.161107254028320312e+01
-2.126688385009765625e+01 -1.032894439697265625e+02 1.722736167907714844e+01
-1.964957046508789062e+01 -1.094060440063476562e+02 1.759705162048339844e+01
-2.184451866149902344e+01 -1.038916778564453125e+02 1.494920063018798828e+01
-1.959184837341308594e+01 -1.106075210571289062e+02 1.560898017883300781e+01
-1.759250831604003906e+01 -1.136712493896484375e+02 1.763680839538574219e+01
-1.736193084716796875e+01 -1.131396942138671875e+02 1.924480628967285156e+01
-1.086102771759033203e+01 -9.307321929931640625e+01 9.976529121398925781e+00
-1.603000259399414062e+01 -9.350001525878906250e+01 6.902184486389160156e+00
-1.609700393676757812e+01 -9.560607910156250000e+01 7.894470214843750000e+00
-1.476868724822998047e+01 -1.054523086547851562e+02 1.038279819488525391e+01
-2.026480484008789062e+01 -9.570748901367187500e+01 8.003591537475585938e+00
-2.274259376525878906e+01 -9.727873229980468750e+01 1.119527912139892578e+01
-2.141506195068359375e+01 -1.040532684326171875e+02 1.269557762145996094e+01
-1.892398071289062500e+01 -1.051037750244140625e+02 1.071713066101074219e+01
-1.926860618591308594e+01 -1.106287384033203125e+02 1.398425483703613281e+01
-1.802127075195312500e+01 -1.097996597290039062e+02 1.195141410827636719e+01
-1.404318714141845703e+01 -1.102413101196289062e+02 1.174584865570068359e+01
-1.691822814941406250e+01 -1.133114166259765625e+02 1.514631175994873047e+01
-1.722694015502929688e+01 -1.135926513671875000e+02 1.653209114074707031e+01
-1.270461082458496094e+01 -1.142844848632812500e+02 1.488715171813964844e+01
-1.649577140808105469e+01 -1.126492767333984375e+02 1.333104133605957031e+01
-1.333232688903808594e+01 -1.132250747680664062e+02 1.381889533996582031e+01
-9.392507553100585938e+00 -8.138198852539062500e+01 -2.716733360290527344e+01
-1.138577938079833984e+01 -8.216989898681640625e+01 -3.259724807739257812e+01
-1.242605400085449219e+01 -7.847805786132812500e+01 -3.325563812255859375e+01
-1.068299674987792969e+01 -7.747554016113281250e+01 -2.703344726562500000e+01
-1.732213020324707031e+01 -8.305025482177734375e+01 -2.034977531433105469e+01
-1.336296081542968750e+01 -8.242594909667968750e+01 -2.066728401184082031e+01
-1.478156757354736328e+01 -7.859657287597656250e+01 -2.035840415954589844e+01
-1.933506965637207031e+01 -7.765650939941406250e+01 -1.997443199157714844e+01
-2.016156959533691406e+01 -8.581127166748046875e+01 -2.300873184204101562e+01
-2.360037994384765625e+01 -7.810896301269531250e+01 -2.275438308715820312e+01
-2.040687942504882812e+01 -7.212424468994140625e+01 -2.079866600036621094e+01
-1.583709907531738281e+01 -7.446377563476562500e+01 -2.046148681640625000e+01
-1.493712425231933594e+01 -5.900160980224609375e+01 -2.484396362304687500e+01
-2.020785140991210938e+01 -5.805276489257812500e+01 -2.488154602050781250e+01
-1.055598354339599609e+01 -8.160493469238281250e+01 -2.315488815307617188e+01
-1.185680198669433594e+01 -7.830212402343750000e+01 -2.289901351928710938e+01
-2.002415275573730469e+01 -7.681523132324218750e+01 -3.707411575317382812e+01
-1.650027084350585938e+01 -7.609025573730468750e+01 -3.675467300415039062e+01
-1.637808990478515625e+01 -7.976930999755859375e+01 -3.597698211669921875e+01
-1.974034500122070312e+01 -8.064816284179687500e+01 -3.581021881103515625e+01
-1.117892265319824219e+01 -5.991121292114257812e+01 -3.246849822998046875e+01
-1.403183746337890625e+01 -6.132259368896484375e+01 -3.863327789306640625e+01
-1.218292045593261719e+01 -5.990509033203125000e+01 -2.810701370239257812e+01
-2.414212989807128906e+01 -7.675685882568359375e+01 -3.440693283081054688e+01
-2.669123458862304688e+01 -7.413464355468750000e+01 -2.962419700622558594e+01
-2.686889076232910156e+01 -6.097161102294921875e+01 -3.539741897583007812e+01
-2.463145446777343750e+01 -6.271563720703125000e+01 -3.952025604248046875e+01
-1.278405857086181641e+01 -7.518217468261718750e+01 -2.298258972167968750e+01
-1.287946319580078125e+01 -7.495260620117187500e+01 -3.376348876953125000e+01
-1.124434185028076172e+01 -7.467710876464843750e+01 -2.767816162109375000e+01
-2.468666458129882812e+01 -7.219774627685546875e+01 -2.379016113281250000e+01
-2.540639495849609375e+01 -7.986927795410156250e+01 -2.820520019531250000e+01
-1.351013183593750000e+01 -9.983099365234375000e+01 -3.190812683105468750e+01
-2.172370719909667969e+01 -8.528666687011718750e+01 -3.247180938720703125e+01
-1.805891990661621094e+01 -8.476863861083984375e+01 -3.511321258544921875e+01
-1.168779182434082031e+01 -9.910517120361328125e+01 -3.417353439331054688e+01
-2.333995056152343750e+01 -8.129234313964843750e+01 -3.309823608398437500e+01
-2.273636817932128906e+01 -8.574927520751953125e+01 -2.789304733276367188e+01
-3.366490840911865234e+00 -9.467599487304687500e+01 -2.790650939941406250e+01
-5.819696903228759766e+00 -9.528507995605468750e+01 -3.217010498046875000e+01
-4.184637546539306641e+00 -9.415457916259765625e+01 -2.480566978454589844e+01
-2.521673202514648438e+01 -5.814696121215820312e+01 -2.879948043823242188e+01
-2.008440589904785156e+01 -6.282797241210937500e+01 -4.170764923095703125e+01
-8.026016235351562500e+00 -9.643633270263671875e+01 -2.206576538085937500e+01
-5.501535892486572266e+00 -9.492219543457031250e+01 -2.300775909423828125e+01
-1.510754871368408203e+01 -8.354294586181640625e+01 -3.513664627075195312e+01
-9.123484611511230469e+00 -9.737558746337890625e+01 -3.452404785156250000e+01
-1.435541820526123047e+01 -9.915873718261718750e+01 -2.812349891662597656e+01
-1.236057567596435547e+01 -9.757429504394531250e+01 -2.360447502136230469e+01
-1.145436573028564453e+01 -1.032801513671875000e+02 -2.914328002929687500e+01
-9.505495071411132812e+00 -1.018873367309570312e+02 -2.468898391723632812e+01
-5.211777687072753906e+00 -1.008634185791015625e+02 -2.316156387329101562e+01
-2.782481431961059570e+00 -9.921854400634765625e+01 -2.394595336914062500e+01
-1.637302994728088379e+00 -9.806134033203125000e+01 -2.567235374450683594e+01
-1.068693733215332031e+01 -1.038453979492187500e+02 -3.270482635498046875e+01
-9.144021987915039062e+00 -1.029938735961914062e+02 -3.475733184814453125e+01
-7.717291355133056641e+00 -9.928625488281250000e+01 -3.471271514892578125e+01
-8.005609512329101562e+00 -1.068809432983398438e+02 -3.403415298461914062e+01
-6.936515808105468750e+00 -1.085797271728515625e+02 -3.079970359802246094e+01
6.234076499938964844e+00 -1.148908309936523438e+02 -2.981557655334472656e+01
3.332342624664306641e+00 -1.108941802978515625e+02 -2.795241165161132812e+01
2.746987819671630859e+00 -1.114640121459960938e+02 -2.803760910034179688e+01
5.421411037445068359e+00 -1.156432266235351562e+02 -2.985763931274414062e+01
-1.261496543884277344e+00 -1.068339614868164062e+02 -2.570180320739746094e+01
-7.127714157104492188e-01 -1.086109466552734375e+02 -2.655590248107910156e+01
-3.476062774658203125e+00 -1.089909667968750000e+02 -2.764794540405273438e+01
2.092835903167724609e-01 -1.134570083618164062e+02 -2.975430679321289062e+01
-3.066012859344482422e+00 -1.131055908203125000e+02 -3.344928741455078125e+01
1.678042411804199219e-01 -1.164346694946289062e+02 -3.456028747558593750e+01
3.166650772094726562e+00 -1.173547821044921875e+02 -3.121146202087402344e+01
-5.321858882904052734e+00 -1.099098968505859375e+02 -3.060501670837402344e+01
6.180890560150146484e+00 -1.176941680908203125e+02 -3.106479454040527344e+01
6.976364135742187500e+00 -1.172476043701171875e+02 -3.132591247558593750e+01
-5.128134250640869141e+00 -1.072345428466796875e+02 -2.681220626831054688e+01
5.960524082183837891e-03 -1.038496932983398438e+02 -2.541982078552246094e+01
4.544229984283447266e+00 -1.096153182983398438e+02 -2.831554794311523438e+01
7.299784660339355469e+00 -1.136666107177734375e+02 -3.038758277893066406e+01
8.023320198059082031e+00 -1.158970565795898438e+02 -3.224212646484375000e+01
4.974783420562744141e+00 -1.084191513061523438e+02 -2.999752426147460938e+01
7.333534240722656250e+00 -1.125041275024414062e+02 -3.172284507751464844e+01
7.758084297180175781e+00 -1.150062637329101562e+02 -3.340663909912109375e+01
4.285160064697265625e+00 -1.077931060791015625e+02 -3.220935058593750000e+01
6.353560447692871094e+00 -1.115657958984375000e+02 -3.365348434448242188e+01
-7.254242300987243652e-01 -9.918276214599609375e+01 -2.884796142578125000e+01
3.155196607112884521e-01 -1.012477416992187500e+02 -2.658225631713867188e+01
6.970861911773681641e+00 -1.140650405883789062e+02 -3.449838256835937500e+01
5.956519126892089844e+00 -1.193616333007812500e+02 -3.312416839599609375e+01
6.966815948486328125e+00 -1.177906723022460938e+02 -3.550237274169921875e+01
5.033906936645507812e+00 -1.191319198608398438e+02 -3.234462356567382812e+01
-3.966101169586181641e+00 -1.122601547241210938e+02 -3.463155746459960938e+01
3.827911317348480225e-01 -1.163076553344726562e+02 -3.665443801879882812e+01
-3.945617198944091797e+00 -1.109563140869140625e+02 -3.628516006469726562e+01
6.579810380935668945e-01 -1.150823516845703125e+02 -3.812700653076171875e+01
3.410395860671997070e+00 -1.190814666748046875e+02 -3.640006637573242188e+01
3.023026704788208008e+00 -1.190528335571289062e+02 -3.552377700805664062e+01
-2.193257093429565430e+00 -9.667952728271484375e+01 -2.848862648010253906e+01
-4.635478496551513672e+00 -9.754435729980468750e+01 -3.252363586425781250e+01
-2.967070102691650391e+00 -9.978829193115234375e+01 -3.270766067504882812e+01
2.416020154953002930e+00 -1.081723022460937500e+02 -3.552135467529296875e+01
-5.954354286193847656e+00 -1.013541107177734375e+02 -3.501408767700195312e+01
-6.584704399108886719e+00 -1.058498382568359375e+02 -3.579636764526367188e+01
-2.668847322463989258e+00 -1.098018569946289062e+02 -3.744491195678710938e+01
-1.953995674848556519e-01 -1.090647964477539062e+02 -3.746830749511718750e+01
1.351909995079040527e+00 -1.137419433593750000e+02 -3.851305389404296875e+01
2.112797975540161133e+00 -1.122451782226562500e+02 -3.829541015625000000e+01
4.753545284271240234e+00 -1.115846405029296875e+02 -3.638170623779296875e+01
4.048899173736572266e+00 -1.159250259399414062e+02 -3.822340774536132812e+01
3.775686740875244141e+00 -1.177088394165039062e+02 -3.763511657714843750e+01
6.415608882904052734e+00 -1.164793701171875000e+02 -3.621080780029296875e+01
4.158862113952636719e+00 -1.142780761718750000e+02 -3.785922241210937500e+01
5.946141719818115234e+00 -1.145933074951171875e+02 -3.645963287353515625e+01
-1.726801300048828125e+01 -6.201462554931640625e+01 -4.127482604980468750e+01
-2.186214447021484375e+01 -8.597261810302734375e+01 -5.151850128173828125e+01
-2.174993515014648438e+01 -8.530708312988281250e+01 -5.568322753906250000e+01
-2.345839309692382812e+01 -8.225022888183593750e+01 -5.609957885742187500e+01
-2.304675865173339844e+01 -8.194906616210937500e+01 -5.162506103515625000e+01
-3.056957054138183594e+01 -8.678302001953125000e+01 -4.726678466796875000e+01
-2.650707435607910156e+01 -8.743306732177734375e+01 -4.693891143798828125e+01
-2.782736778259277344e+01 -8.205463409423828125e+01 -4.564990997314453125e+01
-3.181679153442382812e+01 -8.122144317626953125e+01 -4.602294540405273438e+01
-3.336246109008789062e+01 -8.713587951660156250e+01 -5.085680389404296875e+01
-3.517811203002929688e+01 -8.220005035400390625e+01 -4.987335968017578125e+01
-3.240409851074218750e+01 -7.744604492187500000e+01 -4.585512924194335938e+01
-2.814270591735839844e+01 -7.754201507568359375e+01 -4.535736846923828125e+01
-2.933226585388183594e+01 -6.002046585083007812e+01 -4.647689819335937500e+01
-3.283318710327148438e+01 -5.818015289306640625e+01 -4.852002716064453125e+01
-3.320288848876953125e+01 -6.217199707031250000e+01 -6.611936187744140625e+01
-2.828468704223632812e+01 -6.370253372192382812e+01 -6.572360229492187500e+01
-2.792643165588378906e+01 -6.879725646972656250e+01 -6.281184005737304688e+01
-3.179837608337402344e+01 -6.813645935058593750e+01 -6.397703933715820312e+01
-2.354109191894531250e+01 -8.693476867675781250e+01 -4.854067230224609375e+01
-2.428875923156738281e+01 -8.243920898437500000e+01 -4.792074584960937500e+01
-3.100986289978027344e+01 -7.999298858642578125e+01 -6.143593215942382812e+01
-2.734306335449218750e+01 -7.953562164306640625e+01 -6.035646820068359375e+01
-2.531057357788085938e+01 -8.241814422607421875e+01 -5.968189239501953125e+01
-2.852011680603027344e+01 -8.334075164794921875e+01 -6.161058425903320312e+01
-2.413205337524414062e+01 -6.486345672607421875e+01 -6.177469635009765625e+01
-2.193086814880371094e+01 -6.433736419677734375e+01 -5.714619064331054688e+01
-2.318258476257324219e+01 -6.601741790771484375e+01 -5.473204803466796875e+01
-2.492555618286132812e+01 -6.866075134277343750e+01 -5.926831054687500000e+01
-2.397371673583984375e+01 -6.406302642822265625e+01 -4.954311370849609375e+01
-3.412300872802734375e+01 -8.025449371337890625e+01 -6.014948654174804688e+01
-3.677333068847656250e+01 -7.941572570800781250e+01 -5.558286285400390625e+01
-3.788119888305664062e+01 -6.236962127685546875e+01 -5.984117507934570312e+01
-3.571085357666015625e+01 -6.502574920654296875e+01 -6.318970870971679688e+01
-2.485099601745605469e+01 -7.859950256347656250e+01 -4.761111450195312500e+01
-2.471064758300781250e+01 -7.927685546875000000e+01 -5.697092437744140625e+01
-2.355904006958007812e+01 -7.894641113281250000e+01 -5.229810714721679688e+01
-3.610910415649414062e+01 -7.843438720703125000e+01 -4.984256744384765625e+01
-3.547625732421875000e+01 -8.353835296630859375e+01 -5.591947174072265625e+01
-2.519487571716308594e+01 -9.388264465332031250e+01 -6.295601654052734375e+01
-3.045807456970214844e+01 -8.680472564697265625e+01 -6.113909912109375000e+01
-2.644605636596679688e+01 -8.615554046630859375e+01 -6.174782180786132812e+01
-2.284921264648437500e+01 -9.300273895263671875e+01 -6.337935638427734375e+01
-3.248992538452148438e+01 -8.369870758056640625e+01 -6.052216720581054688e+01
-3.330475997924804688e+01 -8.772225189208984375e+01 -5.686780548095703125e+01
-1.750635147094726562e+01 -9.299855804443359375e+01 -5.389673614501953125e+01
-1.809256362915039062e+01 -9.145190429687500000e+01 -5.885548019409179688e+01
-1.890883255004882812e+01 -9.423928070068359375e+01 -5.152596282958984375e+01
-3.688397979736328125e+01 -5.890084075927734375e+01 -5.298646926879882812e+01
-2.481435775756835938e+01 -9.634397888183593750e+01 -5.156323242187500000e+01
-2.113759422302246094e+01 -9.580126190185546875e+01 -5.073868560791015625e+01
-2.330020332336425781e+01 -8.546952819824218750e+01 -5.942084503173828125e+01
-2.031378173828125000e+01 -9.174181365966796875e+01 -6.215045928955078125e+01
-2.744060707092285156e+01 -9.513421630859375000e+01 -6.042450714111328125e+01
-2.785800743103027344e+01 -9.601949310302734375e+01 -5.519956588745117188e+01
-2.415977859497070312e+01 -9.882613372802734375e+01 -6.139995574951171875e+01
-2.470248794555664062e+01 -9.932717132568359375e+01 -5.636244964599609375e+01
-2.124127197265625000e+01 -9.931858062744140625e+01 -5.296296310424804688e+01
-1.873241615295410156e+01 -9.767259216308593750e+01 -5.191311645507812500e+01
-1.680688476562500000e+01 -9.607530212402343750e+01 -5.262974929809570312e+01
-2.220860290527343750e+01 -9.704338073730468750e+01 -6.390164947509765625e+01
-2.028189849853515625e+01 -9.557891845703125000e+01 -6.425422668457031250e+01
-1.853345298767089844e+01 -9.340988922119140625e+01 -6.280802536010742188e+01
-1.892371177673339844e+01 -1.005997772216796875e+02 -6.453135681152343750e+01
-1.938651847839355469e+01 -1.034096069335937500e+02 -6.180089187622070312e+01
-8.295505523681640625e+00 -1.065657348632812500e+02 -5.533472442626953125e+01
-1.148505878448486328e+01 -1.043493423461914062e+02 -5.457739257812500000e+01
-1.212046623229980469e+01 -1.050454559326171875e+02 -5.497988128662109375e+01
-8.754928588867187500e+00 -1.072250518798828125e+02 -5.548622894287109375e+01
-1.640177154541015625e+01 -1.024135513305664062e+02 -5.425691986083984375e+01
-1.600487709045410156e+01 -1.036048965454101562e+02 -5.509315109252929688e+01
-1.861618041992187500e+01 -1.039006195068359375e+02 -5.732205963134765625e+01
-1.386973285675048828e+01 -1.068672637939453125e+02 -5.763822174072265625e+01
-1.411776733398437500e+01 -1.069921264648437500e+02 -6.238751220703125000e+01
-1.065953922271728516e+01 -1.092768096923828125e+02 -6.199506378173828125e+01
-1.062602806091308594e+01 -1.090611114501953125e+02 -5.764262771606445312e+01
-1.800527191162109375e+01 -1.047486343383789062e+02 -6.079218673706054688e+01
-7.342188835144042969e+00 -1.093148956298828125e+02 -5.634861373901367188e+01
-6.364993095397949219e+00 -1.095062484741210938e+02 -5.659604644775390625e+01
-2.021726608276367188e+01 -1.027794342041015625e+02 -5.696688842773437500e+01
-1.498936748504638672e+01 -9.970484924316406250e+01 -5.310385894775390625e+01
-9.615429878234863281e+00 -1.030699844360351562e+02 -5.456502151489257812e+01
-6.401832580566406250e+00 -1.063531112670898438e+02 -5.592253494262695312e+01
-4.991710662841796875e+00 -1.094959335327148438e+02 -5.736886596679687500e+01
-9.125481605529785156e+00 -1.009993286132812500e+02 -5.524161529541015625e+01
-5.718177795410156250e+00 -1.050257797241210938e+02 -5.672684860229492188e+01
-4.547646999359130859e+00 -1.079126434326171875e+02 -5.819450759887695312e+01
-9.081445693969726562e+00 -9.925003814697265625e+01 -5.755018234252929688e+01
-5.686288356781005859e+00 -1.033914337158203125e+02 -5.835808563232421875e+01
-1.392933177947998047e+01 -9.523099517822265625e+01 -5.662279129028320312e+01
-1.398919486999511719e+01 -9.740479278564453125e+01 -5.397728729248046875e+01
-4.656621456146240234e+00 -1.061447372436523438e+02 -5.902962112426757812e+01
-6.754393577575683594e+00 -1.113168334960937500e+02 -5.907512283325195312e+01
-5.012846946716308594e+00 -1.101563339233398438e+02 -6.019702911376953125e+01
-7.953625679016113281e+00 -1.109700698852539062e+02 -5.849902343750000000e+01
-1.422317695617675781e+01 -1.062431869506835938e+02 -6.347172927856445312e+01
-9.990627288818359375e+00 -1.089194183349609375e+02 -6.322310638427734375e+01
-1.356264209747314453e+01 -1.045992660522460938e+02 -6.480647277832031250e+01
-9.032312393188476562e+00 -1.078875579833984375e+02 -6.402019500732421875e+01
-7.660410881042480469e+00 -1.105649414062500000e+02 -6.208592987060546875e+01
-8.876241683959960938e+00 -1.105503997802734375e+02 -6.076428985595703125e+01
-1.548930931091308594e+01 -9.427769470214843750e+01 -5.555133056640625000e+01
-1.653757858276367188e+01 -9.289329528808593750e+01 -5.936151885986328125e+01
-1.505277061462402344e+01 -9.422536468505859375e+01 -6.042815399169921875e+01
-9.845727920532226562e+00 -9.873036193847656250e+01 -6.109017944335937500e+01
-1.685641288757324219e+01 -9.523675537109375000e+01 -6.358507156372070312e+01
-1.806099891662597656e+01 -9.797554779052734375e+01 -6.486753845214843750e+01
-1.237519359588623047e+01 -1.025998916625976562e+02 -6.513307189941406250e+01
-1.098073577880859375e+01 -1.004597625732421875e+02 -6.412022399902343750e+01
-8.079049110412597656e+00 -1.066073608398437500e+02 -6.397231292724609375e+01
-7.195740699768066406e+00 -1.043092193603515625e+02 -6.321547698974609375e+01
-6.293606758117675781e+00 -1.029129409790039062e+02 -6.093924713134765625e+01
-5.932785511016845703e+00 -1.087567291259765625e+02 -6.222022628784179688e+01
-6.333203792572021484e+00 -1.098943710327148438e+02 -6.246416473388671875e+01
-4.990605354309082031e+00 -1.086530609130859375e+02 -6.017804718017578125e+01
-5.728829383850097656e+00 -1.067677841186523438e+02 -6.176683807373046875e+01
-5.103932380676269531e+00 -1.062410278320312500e+02 -6.051412963867187500e+01
-3.562559890747070312e+01 -6.194447708129882812e+01 -6.433972167968750000e+01
4.491032791137695312e+01 -7.179290771484375000e+01 -4.341619873046875000e+01
4.083639526367187500e+01 -7.089803314208984375e+01 -4.114616775512695312e+01
3.228187942504882812e+01 -8.324812316894531250e+01 -4.812615585327148438e+01
3.247211074829101562e+01 -7.774095153808593750e+01 -4.162001800537109375e+01
3.578936004638671875e+01 -8.645277404785156250e+01 -5.178714752197265625e+01
4.459284973144531250e+01 -8.333219146728515625e+01 -5.335703659057617188e+01
4.021030044555664062e+01 -8.544007873535156250e+01 -5.387074661254882812e+01
3.635429000854492188e+01 -7.301480865478515625e+01 -3.911057662963867188e+01
4.789853668212890625e+01 -7.433666992187500000e+01 -4.715423583984375000e+01
4.797965240478515625e+01 -7.881504821777343750e+01 -5.143682861328125000e+01
4.801631927490234375e+01 -7.961040496826171875e+01 -4.135089874267578125e+01
4.807209396362304688e+01 -8.398060607910156250e+01 -4.562799835205078125e+01
4.490988922119140625e+01 -8.872106170654296875e+01 -4.756715774536132812e+01
3.996593475341796875e+01 -9.063245391845703125e+01 -4.894864654541015625e+01
3.607422637939453125e+01 -9.060982513427734375e+01 -4.809691619873046875e+01
4.458115386962890625e+01 -7.667956542968750000e+01 -3.778995895385742188e+01
4.043476104736328125e+01 -7.593278503417968750e+01 -3.583635330200195312e+01
3.531127548217773438e+01 -7.764875793457031250e+01 -3.576979827880859375e+01
4.416102981567382812e+01 -8.281782531738281250e+01 -3.086035156250000000e+01
4.800380706787109375e+01 -9.264564514160156250e+01 -2.823440170288085938e+01
4.582072067260742188e+01 -1.101703643798828125e+02 -3.200470352172851562e+01
4.467934036254882812e+01 -1.061747665405273438e+02 -3.569330978393554688e+01
4.705715942382812500e+01 -1.056744842529296875e+02 -3.402854537963867188e+01
4.786861038208007812e+01 -1.096965560913085938e+02 -3.125133323669433594e+01
4.602786254882812500e+01 -1.012933273315429688e+02 -3.716558074951171875e+01
4.738299560546875000e+01 -1.018503799438476562e+02 -3.521082305908203125e+01
4.913224411010742188e+01 -9.760130310058593750e+01 -3.265982055664062500e+01
4.978957748413085938e+01 -1.024902496337890625e+02 -2.982420921325683594e+01
4.875750732421875000e+01 -9.569102478027343750e+01 -2.823507118225097656e+01
4.897491073608398438e+01 -9.827952575683593750e+01 -2.554544067382812500e+01
5.077753448486328125e+01 -1.061197891235351562e+02 -2.761571121215820312e+01
4.944895935058593750e+01 -1.107185058593750000e+02 -2.875518417358398438e+01
5.069035720825195312e+01 -1.090902862548828125e+02 -2.519727897644042969e+01
4.755339431762695312e+01 -1.119297256469726562e+02 -2.827608299255371094e+01
4.898247909545898438e+01 -9.617667388916015625e+01 -3.361449432373046875e+01
4.122473907470703125e+01 -9.853395080566406250e+01 -4.213111877441406250e+01
4.126752471923828125e+01 -1.050225677490234375e+02 -3.722938537597656250e+01
4.270413970947265625e+01 -1.094154281616210938e+02 -3.215391159057617188e+01
4.522801208496093750e+01 -1.112942886352539062e+02 -2.778677368164062500e+01
3.764163589477539062e+01 -1.031591796875000000e+02 -3.709980010986328125e+01
3.976308441162109375e+01 -1.072521972656250000e+02 -3.183243942260742188e+01
4.222113800048828125e+01 -1.089167098999023438e+02 -2.736658668518066406e+01
3.552893066406250000e+01 -1.008472671508789062e+02 -3.480258560180664062e+01
3.834713745117187500e+01 -1.050811920166015625e+02 -2.986298751831054688e+01
3.295330047607421875e+01 -9.023728179931640625e+01 -4.303738784790039062e+01
3.618035125732421875e+01 -9.512545013427734375e+01 -4.424662017822265625e+01
4.083388900756835938e+01 -1.068930053710937500e+02 -2.700070190429687500e+01
4.963883209228515625e+01 -1.100865936279296875e+02 -2.368132400512695312e+01
4.691778945922851562e+01 -1.094722671508789062e+02 -2.262185478210449219e+01
4.732257843017578125e+01 -9.537302398681640625e+01 -2.392036437988281250e+01
4.958251190185546875e+01 -1.020087203979492188e+02 -2.352714157104492188e+01
4.785891723632812500e+01 -1.004180755615234375e+02 -2.184458351135253906e+01
4.477065658569335938e+01 -9.240972137451171875e+01 -2.342790222167968750e+01
4.593973922729492188e+01 -9.939485168457031250e+01 -2.099721527099609375e+01
4.900993728637695312e+01 -1.054717864990234375e+02 -2.148140335083007812e+01
5.039978027343750000e+01 -1.054258193969726562e+02 -2.331053161621093750e+01
3.275936889648437500e+01 -8.712113952636718750e+01 -4.604666137695312500e+01
3.214851760864257812e+01 -8.155146789550781250e+01 -4.131290435791015625e+01
3.244429779052734375e+01 -8.470947265625000000e+01 -3.854029083251953125e+01
3.552423858642578125e+01 -9.633292388916015625e+01 -2.937285804748535156e+01
3.545308685302734375e+01 -8.166249847412109375e+01 -3.282798004150390625e+01
4.044780349731445312e+01 -8.136308288574218750e+01 -3.067682456970214844e+01
4.195976257324218750e+01 -9.141003417968750000e+01 -2.347736358642578125e+01
3.842835617065429688e+01 -9.220835876464843750e+01 -2.511235427856445312e+01
4.344255828857421875e+01 -9.918252563476562500e+01 -2.126615715026855469e+01
4.136600875854492188e+01 -9.981673431396484375e+01 -2.255256462097167969e+01
