2.991983413696289062e+01 -4.884830474853515625e+01 -1.294347572326660156e+01
2.709028625488281250e+01 -4.745628356933593750e+01 -7.532101631164550781e+00
-1.204665946960449219e+01 -3.988921356201171875e+01 -2.251782035827636719e+01
-1.218741321563720703e+01 -4.050010299682617188e+01 -3.031447410583496094e+01
2.432271385192871094e+01 -2.299996948242187500e+01 -1.825436782836914062e+01
3.739606475830078125e+01 -2.302790260314941406e+01 -2.078731346130371094e+01
3.756860351562500000e+01 -2.064128303527832031e+01 -3.234323883056640625e+01
1.460830330848693848e+00 -3.941444396972656250e+01 -4.454504394531250000e+01
4.523275494575500488e-01 -4.005888748168945312e+01 -3.415550994873046875e+01
-4.366471290588378906e+00 -3.995029449462890625e+01 -3.543616485595703125e+01
2.269391059875488281e+01 -4.509601593017578125e+01 -2.662211990356445312e+01
2.399728775024414062e+01 -4.575913238525390625e+01 -1.878948974609375000e+01
2.034554100036621094e+01 -4.490716552734375000e+01 -2.162076950073242188e+01
1.810725784301757812e+01 -4.362393951416015625e+01 -2.923497962951660156e+01
-2.619181251525878906e+01 -2.323373794555664062e+01 -7.257810211181640625e+01
-2.894516944885253906e+01 -3.313394165039062500e+01 -7.501292419433593750e+01
4.550564193725585938e+01 -6.533192443847656250e+01 4.751614570617675781e+00
4.567536163330078125e+01 -6.181755447387695312e+01 2.914567470550537109e+00
2.619743108749389648e+00 -3.956203842163085938e+01 -5.612789154052734375e+01
3.787651443481445312e+01 -1.939276123046875000e+01 -4.711353302001953125e+01
2.423395872116088867e+00 -4.130449676513671875e+01 -6.725852966308593750e+01
-1.987584877014160156e+01 -2.418300056457519531e+01 -2.971615028381347656e+01
-2.364719772338867188e+01 -3.053526687622070312e+01 -2.792789268493652344e+01
-2.265751266479492188e+01 -3.266936492919921875e+01 -2.456162643432617188e+01
-2.091708755493164062e+01 -2.706442642211914062e+01 -2.236011886596679688e+01
2.801265525817871094e+01 -5.598160552978515625e+01 4.442086219787597656e+00
3.033923912048339844e+01 -5.946450042724609375e+01 9.798164367675781250e-01
3.089200973510742188e+01 -6.242186737060546875e+01 3.495213031768798828e+00
2.852919387817382812e+01 -5.944207763671875000e+01 7.662292480468750000e+00
3.468803024291992188e+01 -4.892137145996093750e+01 -1.937375640869140625e+01
3.988809967041015625e+01 -4.808199691772460938e+01 -2.137309837341308594e+01
3.960108566284179688e+01 -5.071838760375976562e+01 -1.574783802032470703e+01
3.449439239501953125e+01 -5.076623916625976562e+01 -1.460079002380371094e+01
4.415628433227539062e+01 -4.558687973022460938e+01 -1.899320030212402344e+01
4.412727355957031250e+01 -4.838391113281250000e+01 -1.425405883789062500e+01
2.946278381347656250e+01 -5.238219070434570312e+01 8.447891235351562500e+00
3.532183074951171875e+01 -4.958380126953125000e+01 1.097098445892333984e+01
3.212047195434570312e+01 -3.894205856323242188e+01 -1.825362443923950195e+00
2.745355796813964844e+01 -4.430365753173828125e+01 -2.406854867935180664e+00
-1.867775678634643555e+00 -7.391351222991943359e+00 -7.336516571044921875e+01
-1.150171470642089844e+01 -1.020257282257080078e+01 -7.641654968261718750e+01
-1.443694305419921875e+01 -1.454407691955566406e+01 -6.291481399536132812e+01
-1.777144241333007812e+01 -1.772573852539062500e+01 -5.001140975952148438e+01
-2.042348670959472656e+01 -2.185444641113281250e+01 -3.751871490478515625e+01
-1.061156558990478516e+01 -1.665922355651855469e+01 -3.392813873291015625e+01
-2.041007614135742188e+01 -1.731943321228027344e+01 -6.665000152587890625e+01
2.363756179809570312e+01 -3.625258636474609375e+01 -1.054380226135253906e+01
2.945803833007812500e+01 -3.068809509277343750e+01 -1.100488567352294922e+01
2.316093826293945312e+01 -2.867044639587402344e+01 -1.282420349121093750e+01
-4.395154476165771484e+00 -4.324325180053710938e+01 -6.878073883056640625e+01
4.586112213134765625e+01 -5.832384490966796875e+01 1.285286396741867065e-01
3.212854766845703125e+01 -8.424808502197265625e+00 -9.762315368652343750e+01
2.053779220581054688e+01 -1.909854292869567871e+00 -9.607084655761718750e+01
2.279874610900878906e+01 -4.603077888488769531e+00 -8.982977294921875000e+01
3.549671554565429688e+01 -1.226754570007324219e+01 -9.155269622802734375e+01
3.627641296386718750e+01 -6.155396652221679688e+01 -2.422730207443237305e+00
4.197825241088867188e+01 -6.107693481445312500e+01 -2.672004699707031250e+00
-1.818489074707031250e+01 -4.200020599365234375e+01 -3.078779602050781250e+01
-1.733080101013183594e+01 -3.968824005126953125e+01 -2.427171897888183594e+01
-2.025429534912109375e+01 -3.851199722290039062e+01 -2.355963706970214844e+01
-2.194647407531738281e+01 -4.371090316772460938e+01 -2.856090927124023438e+01
-1.590928649902343750e+01 -1.219115161895751953e+01 -7.946211242675781250e+01
-3.616905212402343750e+01 -3.540176773071289062e+01 -4.336237335205078125e+01
-3.085026168823242188e+01 -2.746655273437500000e+01 -3.965099716186523438e+01
-9.132258415222167969e+00 -5.772993564605712891e+00 -8.745151519775390625e+01
-2.641759216785430908e-01 -3.708364486694335938e+00 -8.484888458251953125e+01
8.843879401683807373e-02 -6.699482798576354980e-01 -9.239029693603515625e+01
1.758793592453002930e+00 -1.955858802795410156e+01 -2.184675216674804688e+01
5.746809482574462891e+00 -6.882990360260009766e+00 -6.911497497558593750e+01
7.076130867004394531e+00 -3.776529788970947266e+00 -8.220967102050781250e+01
7.829636573791503906e+00 -7.280244827270507812e-01 -9.131104278564453125e+01
7.634255886077880859e+00 2.124525547027587891e+00 -9.753887939453125000e+01
-8.620061874389648438e-01 2.016360521316528320e+00 -9.824633789062500000e+01
4.085149002075195312e+01 -5.022334671020507812e+01 1.066616249084472656e+01
3.553434371948242188e+01 -5.436224365234375000e+01 1.481178855895996094e+01
-1.835032463073730469e+00 4.109158515930175781e+00 -1.053260498046875000e+02
7.313564300537109375e+00 4.492592811584472656e+00 -1.038976593017578125e+02
1.621599197387695312e+01 -5.117705345153808594e+00 -7.994652557373046875e+01
2.684979629516601562e+01 -8.827452659606933594e+00 -7.788124084472656250e+01
1.468997955322265625e+01 -7.597194671630859375e+00 -6.702043914794921875e+01
2.551658630371093750e+01 -1.073655700683593750e+01 -6.362311553955078125e+01
1.223187446594238281e+01 -1.645010757446289062e+01 -2.299379920959472656e+01
3.255987548828125000e+01 -7.231484222412109375e+01 1.814031791687011719e+01
3.089805221557617188e+01 -6.162751388549804688e+01 1.442488670349121094e+01
2.908200645446777344e+01 -6.396763229370117188e+01 1.009116935729980469e+01
3.042099380493164062e+01 -7.393640136718750000e+01 1.531769847869873047e+01
3.014553451538085938e+01 -5.659653472900390625e+01 1.198565864562988281e+01
3.576259613037109375e+01 -5.925606155395507812e+01 1.675831985473632812e+01
3.867575836181640625e+01 -1.864947128295898438e+01 -6.246553421020507812e+01
2.119167709350585938e+01 -4.419720458984375000e+01 -1.485120677947998047e+01
4.078308868408203125e+01 -1.894350242614746094e+01 -7.863281250000000000e+01
4.792874908447265625e+01 -3.185413551330566406e+01 -5.726229858398437500e+01
4.916948699951171875e+01 -3.424070358276367188e+01 -7.012846374511718750e+01
4.248598098754882812e+01 -2.254627037048339844e+01 -9.493373870849609375e+01
4.830221557617187500e+01 -3.367285537719726562e+01 -8.567713928222656250e+01
3.671962356567382812e+01 -1.524655914306640625e+01 -1.066112213134765625e+02
3.902416229248046875e+01 -1.811937141418457031e+01 -1.002765579223632812e+02
5.135338592529296875e+01 -4.752217483520507812e+01 -7.667124938964843750e+01
4.012484741210937500e+01 -7.584983825683593750e+01 6.557189941406250000e+00
3.454090499877929688e+01 -7.549662780761718750e+01 7.357608795166015625e+00
3.057516479492187500e+01 -5.795949459075927734e+00 -1.038634490966796875e+02
2.499795913696289062e+01 -6.958061218261718750e+01 -6.471105194091796875e+01
-2.006439924240112305e+00 -4.468948364257812500e+01 -7.903418731689453125e+01
2.840894699096679688e+00 -4.344319915771484375e+01 -7.735148620605468750e+01
-1.941164398193359375e+01 -4.333201980590820312e+01 -8.596759033203125000e+01
-8.976552963256835938e+00 -4.644746017456054688e+01 -8.207856750488281250e+01
4.439239501953125000e+01 -7.502867889404296875e+01 8.290902137756347656e+00
6.493864059448242188e-01 -3.987658691406250000e+01 -1.164185523986816406e+01
-2.817361354827880859e+00 -3.712192535400390625e+01 -1.264200401306152344e+01
3.698762893676757812e+01 -7.726796722412109375e+01 -7.296075439453125000e+01
3.929589843750000000e+01 -8.097947692871093750e+01 -6.865470886230468750e+01
5.108438873291015625e+01 -7.559212493896484375e+01 -6.756882476806640625e+01
4.576493072509765625e+01 -7.955131530761718750e+01 -6.985202789306640625e+01
4.422185516357421875e+01 -7.404706573486328125e+01 -7.502331542968750000e+01
4.982757949829101562e+01 -6.889691162109375000e+01 -7.353995513916015625e+01
3.802750110626220703e+00 -4.532789993286132812e+01 -8.825759124755859375e+01
2.687993347644805908e-01 -4.571166229248046875e+01 -8.864129638671875000e+01
-2.351333808898925781e+01 -2.108825683593750000e+01 -8.395632171630859375e+01
-2.570588302612304688e+01 -3.224184036254882812e+01 -8.553667449951171875e+01
4.580168533325195312e+01 -4.043158340454101562e+01 -1.580103588104248047e+01
4.399288940429687500e+01 -3.013812255859375000e+01 -1.968890762329101562e+01
4.360204315185546875e+01 -3.455073165893554688e+01 -1.222186279296875000e+01
3.875885772705078125e+01 -3.671263885498046875e+01 -3.952634334564208984e+00
2.264345741271972656e+01 -4.171735382080078125e+01 -1.109262561798095703e+01
2.547682571411132812e+01 -4.016256713867187500e+01 -8.542605400085449219e+00
1.477802276611328125e+01 -5.020820999145507812e+01 -9.641679382324218750e+01
1.129967212677001953e+01 -4.851365280151367188e+01 -8.380223083496093750e+01
3.268186569213867188e+01 -7.081944274902343750e+01 -5.346667480468750000e+01
3.754685974121093750e+01 -7.145396423339843750e+01 -4.974592208862304688e+01
1.080765724182128906e+01 -4.171720123291015625e+01 -3.279201126098632812e+01
4.399667263031005859e+00 -2.681818771362304688e+01 -1.152784156799316406e+01
1.264574718475341797e+01 -2.342380142211914062e+01 -1.232169914245605469e+01
1.174571800231933594e+01 -4.337337112426757812e+01 -2.366102218627929688e+01
4.557996749877929688e+01 -7.280587005615234375e+01 1.511795616149902344e+01
4.597924041748046875e+01 -7.433552551269531250e+01 1.106762695312500000e+01
3.792770004272460938e+01 -3.036680603027343750e+01 -1.100454902648925781e+01
-1.239235496520996094e+01 -4.235567855834960938e+01 -3.890148544311523438e+01
-2.578553676605224609e+00 -2.283871078491210938e+01 -1.799983787536621094e+01
2.822174549102783203e+00 -3.446857070922851562e+01 -9.907026290893554688e+00
-3.393792724609375000e+01 -4.209260559082031250e+01 -4.740610885620117188e+01
1.982493209838867188e+01 7.189542651176452637e-01 -1.029517059326171875e+02
3.092831420898437500e+01 -6.654042816162109375e+01 6.058931827545166016e+00
3.076517868041992188e+01 -7.450085449218750000e+01 1.012745475769042969e+01
3.617406463623046875e+01 -7.059791564941406250e+01 1.943227767944335938e+01
4.176689910888671875e+01 -6.998006439208984375e+01 1.849800872802734375e+01
-2.217176246643066406e+01 -3.215016174316406250e+01 -9.499868011474609375e+01
5.609956264495849609e+00 -4.296571731567382812e+01 -7.572338104248046875e+01
5.235504150390625000e+01 -5.854865264892578125e+01 -7.029425811767578125e+01
5.329707717895507812e+01 -6.970451354980468750e+01 -6.333744049072265625e+01
1.237542915344238281e+01 -4.381450271606445312e+01 -1.779847717285156250e+01
-2.499209976196289062e+01 -2.719551467895507812e+01 -3.367353439331054688e+01
-1.305769920349121094e+01 -1.955360794067382812e+01 -2.516718292236328125e+01
-1.518323230743408203e+01 -2.202475929260253906e+01 -1.775323677062988281e+01
-8.917377471923828125e+00 -2.418167304992675781e+01 -1.316376686096191406e+01
-5.562504768371582031e+00 -3.024390029907226562e+01 -9.798135757446289062e+00
3.588497161865234375e+01 -7.619555664062500000e+01 2.064462852478027344e+01
4.144538116455078125e+01 -7.559552764892578125e+01 1.992670822143554688e+01
4.528652954101562500e+01 -7.827935028076171875e+01 1.678386878967285156e+01
4.583255386352539062e+01 -7.934588623046875000e+01 1.308801841735839844e+01
4.401479339599609375e+01 -7.896242523193359375e+01 9.524848937988281250e+00
3.235095977783203125e+01 -7.792971801757812500e+01 1.932809066772460938e+01
3.050743675231933594e+01 -7.931681060791015625e+01 1.678503227233886719e+01
3.078797531127929688e+01 -7.827027893066406250e+01 1.170234394073486328e+01
3.181826782226562500e+01 -8.328060913085937500e+01 1.997089576721191406e+01
3.567499923706054688e+01 -8.543600463867187500e+01 2.210484695434570312e+01
4.434415435791015625e+01 -9.364653778076171875e+01 1.704197311401367188e+01
4.461223602294921875e+01 -8.765740203857421875e+01 1.849463844299316406e+01
4.345984268188476562e+01 -8.993344879150390625e+01 1.969467735290527344e+01
4.299026489257812500e+01 -9.548178863525390625e+01 1.934056472778320312e+01
4.153063201904296875e+01 -1.005232086181640625e+02 1.990205001831054688e+01
4.282350921630859375e+01 -9.926152801513671875e+01 1.752576255798339844e+01
4.087979888916015625e+01 -8.686626434326171875e+01 2.156230926513671875e+01
3.978053665161132812e+01 -9.414182281494140625e+01 2.149282836914062500e+01
3.560860061645507812e+01 -9.342415618896484375e+01 2.199577713012695312e+01
3.518154144287109375e+01 -9.899063873291015625e+01 2.202606582641601562e+01
3.853627777099609375e+01 -9.964788818359375000e+01 2.183662414550781250e+01
3.686943435668945312e+01 -8.851869964599609375e+01 2.220384597778320312e+01
4.103812408447265625e+01 -8.431861877441406250e+01 2.144835472106933594e+01
4.048131561279296875e+01 -1.032086410522460938e+02 1.853788375854492188e+01
4.014953231811523438e+01 -1.027249603271484375e+02 2.036694526672363281e+01
3.757639694213867188e+01 -1.023266983032226562e+02 2.172589111328125000e+01
3.634936523437500000e+01 -1.050216522216796875e+02 2.082664299011230469e+01
4.553611373901367188e+01 -8.451818847656250000e+01 1.399266529083251953e+01
4.414408493041992188e+01 -9.329347991943359375e+01 1.488282775878906250e+01
4.205577468872070312e+01 -9.909306335449218750e+01 1.527456665039062500e+01
3.956983947753906250e+01 -1.028245697021484375e+02 1.664525222778320312e+01
4.190665435791015625e+01 -9.402280426025390625e+01 1.256276702880859375e+01
4.016816329956054688e+01 -9.867231750488281250e+01 1.365560340881347656e+01
3.783747100830078125e+01 -1.013813781738281250e+02 1.499033069610595703e+01
3.837380981445312500e+01 -9.422254943847656250e+01 1.149286842346191406e+01
3.731465911865234375e+01 -9.828395080566406250e+01 1.293895912170410156e+01
4.039479827880859375e+01 -8.201313781738281250e+01 8.982851028442382812e+00
4.386495590209960938e+01 -8.209430694580078125e+01 1.050854969024658203e+01
3.663307952880859375e+01 -1.003314743041992188e+02 1.414708232879638672e+01
3.526483154296875000e+01 -1.031963653564453125e+02 1.849038124084472656e+01
3.264842605590820312e+01 -9.112271881103515625e+01 2.120846939086914062e+01
3.246571350097656250e+01 -9.845005035400390625e+01 2.100999641418457031e+01
3.091297340393066406e+01 -9.066688537597656250e+01 1.983331298828125000e+01
3.109938049316406250e+01 -9.787899017333984375e+01 1.961836624145507812e+01
3.324892425537109375e+01 -1.020916595458984375e+02 2.100890731811523438e+01
3.495590972900390625e+01 -1.015994110107421875e+02 2.187035369873046875e+01
3.983220291137695312e+01 -7.830163574218750000e+01 7.553217887878417969e+00
3.392938995361328125e+01 -7.810819244384765625e+01 8.762151718139648438e+00
3.441838836669921875e+01 -8.148107910156250000e+01 9.721264839172363281e+00
3.399726486206054688e+01 -9.346369934082031250e+01 1.214719295501708984e+01
3.094951248168945312e+01 -8.191732025146484375e+01 1.258267307281494141e+01
3.009552383422851562e+01 -8.418672943115234375e+01 1.724574851989746094e+01
2.985506248474121094e+01 -9.154035949707031250e+01 1.770714378356933594e+01
3.039821243286132812e+01 -9.215622711181640625e+01 1.499327373504638672e+01
3.048267555236816406e+01 -9.711463165283203125e+01 1.765611457824707031e+01
3.123977088928222656e+01 -9.697518157958984375e+01 1.554049968719482422e+01
3.398440551757812500e+01 -9.777551269531250000e+01 1.356544971466064453e+01
3.207401275634765625e+01 -1.006646575927734375e+02 1.765168952941894531e+01
3.231234359741210938e+01 -1.015704498291015625e+02 1.983280944824218750e+01
3.482709121704101562e+01 -1.021407089233398438e+02 1.641080093383789062e+01
3.227285003662109375e+01 -9.966428375244140625e+01 1.614224052429199219e+01
3.454424285888671875e+01 -1.006905059814453125e+02 1.501507091522216797e+01
1.515510368347167969e+01 -6.223922729492187500e+01 6.529318332672119141e+00
8.448999404907226562e+00 -6.289752197265625000e+01 4.261087417602539062e+00
9.324334144592285156e+00 -5.946817016601562500e+01 4.295993804931640625e+00
1.542227172851562500e+01 -5.912113189697265625e+01 6.533498287200927734e+00
1.440514564514160156e+01 -6.036846160888671875e+01 1.824150657653808594e+01
1.736397171020507812e+01 -6.127751922607421875e+01 1.423681640625000000e+01
1.720945358276367188e+01 -5.655047607421875000e+01 1.487989616394042969e+01
1.367567729949951172e+01 -5.437057495117187500e+01 1.883601379394531250e+01
9.075460433959960938e+00 -5.985009765625000000e+01 1.974262428283691406e+01
8.091292381286621094e+00 -5.291745758056640625e+01 1.969204330444335938e+01
1.407187843322753906e+01 -4.900592041015625000e+01 1.659234046936035156e+01
1.750996017456054688e+01 -5.178404998779296875e+01 1.287607383728027344e+01
2.061873245239257812e+01 -3.886529159545898438e+01 -5.146271705627441406e+00
1.775593376159667969e+01 -3.387276077270507812e+01 -2.382946491241455078e+00
6.095538139343261719e+00 -4.412918472290039062e+01 -1.082423686981201172e+01
3.400660037994384766e+00 -4.278812789916992188e+01 -8.397772789001464844e+00
1.737920761108398438e+01 -6.192028808593750000e+01 9.882543563842773438e+00
1.756176185607910156e+01 -5.802658081054687500e+01 1.057564353942871094e+01
5.993615388870239258e-01 -5.470386886596679688e+01 5.505236148834228516e+00
4.989241600036621094e+00 -5.640363693237304688e+01 3.030323743820190430e+00
3.545342206954956055e+00 -5.919575881958007812e+01 4.875225543975830078e+00
-9.809715300798416138e-02 -5.819383621215820312e+01 8.147932052612304688e+00
1.819971656799316406e+01 -4.402133941650390625e+01 -1.035140037536621094e+01
1.247029590606689453e+01 -4.490702438354492188e+01 -1.165631389617919922e+01
2.013945007324218750e+01 -4.232362747192382812e+01 -7.755525112152099609e+00
-8.658463358879089355e-01 -5.183744049072265625e+01 1.012741661071777344e+01
1.450757026672363281e+00 -4.883798980712890625e+01 1.474483203887939453e+01
4.213572025299072266e+00 -3.349987030029296875e+01 -1.654473304748535156e+00
7.975572943687438965e-01 -3.788227081298828125e+01 -3.994901180267333984e+00
1.772087097167968750e+01 -5.432838058471679688e+01 8.976682662963867188e+00
1.129707336425781250e+01 -5.711765670776367188e+01 2.981647968292236328e+00
1.585157489776611328e+01 -5.641793060302734375e+01 5.080980777740478516e+00
7.797672271728515625e+00 -4.734226226806640625e+01 1.714244842529296875e+01
1.941404700279235840e+00 -5.482100677490234375e+01 1.736888504028320312e+01
2.552150249481201172e+00 -7.509604644775390625e+01 1.013715171813964844e+01
2.977197170257568359e-01 -6.256276321411132812e+01 1.286195182800292969e+01
2.980865240097045898e-01 -6.314850616455078125e+01 8.394966125488281250e+00
1.976290345191955566e+00 -7.545133972167968750e+01 6.097907066345214844e+00
-5.432633161544799805e-01 -5.673030471801757812e+01 1.308071422576904297e+01
3.065368175506591797e+00 -6.097946929931640625e+01 1.738504409790039062e+01
1.394689178466796875e+01 -7.504780578613281250e+01 2.786840915679931641e+00
7.431046962738037109e+00 -7.531770324707031250e+01 1.434222579002380371e+00
1.701164054870605469e+01 -7.537294006347656250e+01 5.579670906066894531e+00
1.104313087463378906e+01 -3.137246131896972656e+01 -9.160062670707702637e-01
1.568870544433593750e+01 -7.419897460937500000e+01 1.396761131286621094e+01
1.783511161804199219e+01 -7.498873901367187500e+01 8.906142234802246094e+00
2.829127073287963867e+00 -6.307844924926757812e+01 5.234523773193359375e+00
3.398192882537841797e+00 -7.591253662109375000e+01 2.916322231292724609e+00
4.938685894012451172e+00 -7.458836364746093750e+01 1.360615253448486328e+01
1.037946605682373047e+01 -7.298642730712890625e+01 1.651268196105957031e+01
5.929238319396972656e+00 -8.019810485839843750e+01 1.178299236297607422e+01
1.102525806427001953e+01 -7.950846099853515625e+01 1.413479423522949219e+01
1.643363380432128906e+01 -7.989549255371093750e+01 1.159085273742675781e+01
1.810141372680664062e+01 -7.943634796142578125e+01 7.427930355072021484e+00
1.712488746643066406e+01 -7.871809387207031250e+01 4.427477359771728516e+00
3.546375989913940430e+00 -8.073986816406250000e+01 8.505659103393554688e+00
2.716175556182861328e+00 -8.076070404052734375e+01 4.742288589477539062e+00
4.079621315002441406e+00 -7.883479309082031250e+01 1.801286101341247559e+00
4.631037712097167969e+00 -8.713051605224609375e+01 4.832907676696777344e+00
7.356768131256103516e+00 -8.843955993652343750e+01 7.397618293762207031e+00
2.016772079467773438e+01 -9.627639007568359375e+01 -5.529952645301818848e-01
1.963338470458984375e+01 -9.185732269287109375e+01 3.086328506469726562e+00
1.815346336364746094e+01 -9.328344726562500000e+01 3.844069004058837891e+00
1.905888938903808594e+01 -9.750078582763671875e+01 5.234463810920715332e-01
1.762637710571289062e+01 -8.812117767333984375e+01 7.521898746490478516e+00
1.656274032592773438e+01 -9.029173278808593750e+01 6.914198398590087891e+00
1.268560218811035156e+01 -9.006109619140625000e+01 8.100481033325195312e+00
1.403456401824951172e+01 -9.470275878906250000e+01 4.110643386840820312e+00
9.318893432617187500e+00 -9.414308929443359375e+01 3.220800876617431641e+00
1.058778095245361328e+01 -9.878192901611328125e+01 2.020646817982196808e-02
1.491119861602783203e+01 -9.954439544677734375e+01 9.200663566589355469e-01
9.613062858581542969e+00 -9.105909729003906250e+01 6.503738403320312500e+00
1.862573051452636719e+01 -1.000829544067382812e+02 -1.254878640174865723e+00
1.890292358398437500e+01 -1.001614837646484375e+02 -3.006524562835693359e+00
1.236275196075439453e+01 -8.752270507812500000e+01 1.001204872131347656e+01
1.877383041381835938e+01 -8.356935119628906250e+01 6.281056404113769531e+00
2.013683700561523438e+01 -9.063078308105468750e+01 1.214560270309448242e+00
1.994448852539062500e+01 -9.564345550537109375e+01 -2.619270324707031250e+00
1.779182052612304688e+01 -9.950186920166015625e+01 -5.013562679290771484e+00
1.889684486389160156e+01 -8.995500946044921875e+01 -1.687300443649291992e+00
1.871726417541503906e+01 -9.509670257568359375e+01 -4.544293403625488281e+00
1.658209609985351562e+01 -9.836322021484375000e+01 -6.102495670318603516e+00
1.561929607391357422e+01 -8.960652923583984375e+01 -4.117943763732910156e+00
1.571185111999511719e+01 -9.476650238037109375e+01 -6.424874782562255859e+00
1.392762756347656250e+01 -8.007173156738281250e+01 1.061486005783081055e+00
1.748926925659179688e+01 -8.135637664794921875e+01 3.306182861328125000e+00
1.542197132110595703e+01 -9.714756011962890625e+01 -6.715308189392089844e+00
1.588581562042236328e+01 -1.023157196044921875e+02 -4.237450122833251953e+00
1.474358844757080078e+01 -9.980543518066406250e+01 -6.172720432281494141e+00
1.581324768066406250e+01 -1.021178817749023438e+02 -1.678679227828979492e+00
7.551195621490478516e+00 -9.360507965087890625e+01 2.165910482406616211e+00
9.140096664428710938e+00 -9.854441833496093750e+01 -1.664125084877014160e+00
6.136563777923583984e+00 -9.289768981933593750e+01 3.623149991035461426e-01
8.438283920288085938e+00 -9.838722229003906250e+01 -3.704574108123779297e+00
1.112720584869384766e+01 -1.017594757080078125e+02 -4.336901664733886719e+00
1.181516456604003906e+01 -1.021612091064453125e+02 -2.974714756011962891e+00
1.378171730041503906e+01 -7.760877990722656250e+01 1.996358633041381836e+00
7.774572849273681641e+00 -7.773445892333984375e+01 7.773581147193908691e-01
8.300140380859375000e+00 -8.003220367431640625e+01 2.739787101745605469e-02
1.053685283660888672e+01 -8.968090820312500000e+01 -4.851618766784667969e+00
4.518893241882324219e+00 -8.148046875000000000e+01 9.417520761489868164e-01
3.697381258010864258e+00 -8.540930175781250000e+01 2.470977783203125000e+00
5.607376098632812500e+00 -9.160160827636718750e+01 -1.327274680137634277e+00
6.964865207672119141e+00 -9.069818115234375000e+01 -3.742533206939697266e+00
8.056272506713867188e+00 -9.742286682128906250e+01 -4.868592739105224609e+00
8.312470436096191406e+00 -9.524897003173828125e+01 -5.977629661560058594e+00
1.179317474365234375e+01 -9.450089263916015625e+01 -6.925740242004394531e+00
1.086928367614746094e+01 -1.000036468505859375e+02 -6.056309223175048828e+00
1.121092414855957031e+01 -1.011257095336914062e+02 -5.248553276062011719e+00
1.401709175109863281e+01 -9.881060791015625000e+01 -7.006854057312011719e+00
1.021125602722167969e+01 -9.804895782470703125e+01 -6.811711788177490234e+00
1.317263031005859375e+01 -9.780812835693359375e+01 -7.213510990142822266e+00
-1.476845550537109375e+01 -4.915773391723632812e+01 6.577342033386230469e+00
-1.962058830261230469e+01 -5.058759689331054688e+01 2.357734441757202148e+00
-1.868602371215820312e+01 -4.821251678466796875e+01 4.853784441947937012e-01
-1.387633991241455078e+01 -4.618386077880859375e+01 4.624959468841552734e+00
-1.870155525207519531e+01 -4.190699005126953125e+01 1.411091423034667969e+01
-1.525577831268310547e+01 -4.443333816528320312e+01 1.317295551300048828e+01
-1.444999694824218750e+01 -4.057782745361328125e+01 1.110655975341796875e+01
-1.768975067138671875e+01 -3.670436859130859375e+01 1.126523876190185547e+01
-2.363212966918945312e+01 -4.280878448486328125e+01 1.394798851013183594e+01
-2.269433212280273438e+01 -3.533324050903320312e+01 9.829191207885742188e+00
-1.641679000854492188e+01 -3.263978958129882812e+01 6.828867912292480469e+00
-1.355173969268798828e+01 -3.711547088623046875e+01 8.347661018371582031e+00
-7.497406005859375000e+00 -3.171232032775878906e+01 -6.255987644195556641e+00
-1.150838756561279297e+01 -2.650258255004882812e+01 -6.719351291656494141e+00
-1.369453144073486328e+01 -4.686910629272460938e+01 1.035428428649902344e+01
-1.300572681427001953e+01 -4.365291595458984375e+01 8.674585342407226562e+00
-2.519989395141601562e+01 -4.436100769042968750e+01 -2.852762937545776367e+00
-2.183060073852539062e+01 -4.631969833374023438e+01 -3.154152154922485352e+00
-2.354338645935058594e+01 -4.764801025390625000e+01 -8.273299336433410645e-01
-2.671216964721679688e+01 -4.577407455444335938e+01 2.863290905952453613e-01
-7.600955963134765625e+00 -3.903673171997070312e+01 -1.269898414611816406e+01
-1.300069618225097656e+01 -3.988259124755859375e+01 -1.667522621154785156e+01
-7.044380187988281250e+00 -3.605907440185546875e+01 -8.612974166870117188e+00
-2.779460716247558594e+01 -4.002510452270507812e+01 -4.196666777133941650e-01
-2.672040367126464844e+01 -3.429864501953125000e+01 1.744273185729980469e+00
-2.289055252075195312e+01 -2.936957931518554688e+01 -1.302245903015136719e+01
-2.280176544189453125e+01 -3.400422286987304688e+01 -1.548570251464843750e+01
-1.240965938568115234e+01 -4.090895462036132812e+01 6.689070224761962891e+00
-1.733575820922851562e+01 -4.654469299316406250e+01 -1.408058047294616699e+00
-1.314478492736816406e+01 -4.445122146606445312e+01 2.847043275833129883e+00
-2.144137763977050781e+01 -3.118433189392089844e+01 4.806962013244628906e+00
-2.752623939514160156e+01 -3.806678009033203125e+01 6.930245876312255859e+00
-3.044481277465820312e+01 -6.041176605224609375e+01 1.307176685333251953e+01
-2.922949600219726562e+01 -4.560025787353515625e+01 6.074261188507080078e+00
-2.743736648559570312e+01 -4.871815872192382812e+01 2.683357238769531250e+00
-2.972464561462402344e+01 -6.190207672119140625e+01 1.005202579498291016e+01
-2.880251121520996094e+01 -4.263824462890625000e+01 3.537566423416137695e+00
-2.794377136230468750e+01 -4.315779876708984375e+01 1.036557483673095703e+01
-1.810842323303222656e+01 -6.246761322021484375e+01 1.231375694274902344e+01
-2.234034919738769531e+01 -6.239017868041992188e+01 8.905214309692382812e+00
-1.631034088134765625e+01 -6.044968795776367188e+01 1.504890155792236328e+01
-1.765380859375000000e+01 -2.476941490173339844e+01 -9.544448852539062500e+00
-1.943638610839843750e+01 -3.794736862182617188e+01 -1.770211410522460938e+01
-1.951871109008789062e+01 -5.857186889648437500e+01 1.962067604064941406e+01
-1.688889503479003906e+01 -5.952057647705078125e+01 1.739609718322753906e+01
-2.442300033569335938e+01 -4.999195480346679688e+01 1.361300110816955566e+00
-2.706991004943847656e+01 -6.248964309692382812e+01 8.306292533874511719e+00
-2.898265075683593750e+01 -5.806483840942382812e+01 1.643358230590820312e+01
-2.447452545166015625e+01 -5.684332275390625000e+01 1.939924812316894531e+01
-2.936276245117187500e+01 -6.354866790771484375e+01 1.698541831970214844e+01
-2.517255020141601562e+01 -6.244825363159179688e+01 2.030281448364257812e+01
-2.040256118774414062e+01 -6.398677444458007812e+01 2.071867752075195312e+01
-1.771442794799804688e+01 -6.452962493896484375e+01 1.863219451904296875e+01
-1.705764770507812500e+01 -6.495838165283203125e+01 1.614204978942871094e+01
-3.041968727111816406e+01 -6.548558044433593750e+01 1.355881690979003906e+01
-2.947818946838378906e+01 -6.638416290283203125e+01 1.071668338775634766e+01
-2.680636596679687500e+01 -6.463844299316406250e+01 8.839352607727050781e+00
-2.978105163574218750e+01 -6.991135406494140625e+01 1.266605186462402344e+01
-2.884695434570312500e+01 -7.117179107666015625e+01 1.638707542419433594e+01
-1.996433448791503906e+01 -8.410984802246093750e+01 1.710294723510742188e+01
-2.016353797912597656e+01 -7.855224609375000000e+01 1.820390892028808594e+01
-2.109472846984863281e+01 -7.871199798583984375e+01 1.843521690368652344e+01
-2.120662498474121094e+01 -8.430451965332031250e+01 1.747599411010742188e+01
-2.164727210998535156e+01 -7.188134765625000000e+01 2.008625221252441406e+01
-2.238972282409667969e+01 -7.390715026855468750e+01 1.970081520080566406e+01
-2.532822418212890625e+01 -7.282742309570312500e+01 1.919233703613281250e+01
-2.499278259277343750e+01 -7.932609558105468750e+01 1.778593635559082031e+01
-2.836329650878906250e+01 -7.802932739257812500e+01 1.443232154846191406e+01
-2.756661987304687500e+01 -8.303043365478515625e+01 1.389756202697753906e+01
-2.461245918273925781e+01 -8.483206939697265625e+01 1.700852966308593750e+01
-2.809096717834472656e+01 -7.323230743408203125e+01 1.670857620239257812e+01
-2.184083938598632812e+01 -8.694992065429687500e+01 1.683278274536132812e+01
-2.114796829223632812e+01 -8.745835113525390625e+01 1.644700813293457031e+01
-2.554243469238281250e+01 -7.013439941406250000e+01 1.976741981506347656e+01
-1.871525001525878906e+01 -7.007646942138671875e+01 1.897022056579589844e+01
-1.830919456481933594e+01 -7.824650573730468750e+01 1.710106086730957031e+01
-1.835605621337890625e+01 -8.385114288330078125e+01 1.586311912536621094e+01
-1.980965614318847656e+01 -8.751259613037109375e+01 1.498195648193359375e+01
-1.761260032653808594e+01 -7.783293151855468750e+01 1.476179695129394531e+01
-1.787321662902832031e+01 -8.312631988525390625e+01 1.395530986785888672e+01
-1.911553955078125000e+01 -8.600882720947265625e+01 1.312006187438964844e+01
-1.850040245056152344e+01 -7.735505676269531250e+01 1.233088207244873047e+01
-1.874027633666992188e+01 -8.212766265869140625e+01 1.178949451446533203e+01
-1.894682693481445312e+01 -6.728858184814453125e+01 1.330414581298828125e+01
-1.751554298400878906e+01 -6.851222991943359375e+01 1.654170608520507812e+01
-1.942693519592285156e+01 -8.467435455322265625e+01 1.169999122619628906e+01
-2.347438049316406250e+01 -8.878249359130859375e+01 1.545120429992675781e+01
-2.056569671630859375e+01 -8.714150238037109375e+01 1.191583442687988281e+01
-2.385134315490722656e+01 -8.766363525390625000e+01 1.615945053100585938e+01
-2.890059852600097656e+01 -7.705735015869140625e+01 1.310217285156250000e+01
-2.778806686401367188e+01 -8.347492980957031250e+01 1.180111885070800781e+01
-2.848964500427246094e+01 -7.631370544433593750e+01 1.094440555572509766e+01
-2.723445701599121094e+01 -8.284429168701171875e+01 9.857736587524414062e+00
-2.635036087036132812e+01 -8.741165924072265625e+01 1.245914936065673828e+01
-2.648718643188476562e+01 -8.702833557128906250e+01 1.335547828674316406e+01
-1.871046829223632812e+01 -6.468856811523437500e+01 1.268317222595214844e+01
-2.267318725585937500e+01 -6.433231353759765625e+01 9.472989082336425781e+00
-2.226961517333984375e+01 -6.669718933105468750e+01 1.003924083709716797e+01
-2.127474403381347656e+01 -7.725667572021484375e+01 9.478830337524414062e+00
-2.617691612243652344e+01 -6.706860351562500000e+01 9.109820365905761719e+00
-2.851500511169433594e+01 -7.031575012207031250e+01 1.013208770751953125e+01
-2.700175476074218750e+01 -7.623339843750000000e+01 9.101379394531250000e+00
-2.454059600830078125e+01 -7.692253875732421875e+01 8.402964591979980469e+00
-2.586203575134277344e+01 -8.211489105224609375e+01 8.820802688598632812e+00
-2.424699783325195312e+01 -8.116425323486328125e+01 8.322782516479492188e+00
-2.091117286682128906e+01 -8.173890686035156250e+01 9.377198219299316406e+00
-2.419021987915039062e+01 -8.527306365966796875e+01 9.334151268005371094e+00
-2.534324264526367188e+01 -8.658512878417968750e+01 1.065766334533691406e+01
-2.073433303833007812e+01 -8.591959381103515625e+01 1.079287338256835938e+01
-2.317370414733886719e+01 -8.392711639404296875e+01 9.053503990173339844e+00
-2.093993186950683594e+01 -8.470063781738281250e+01 1.007966136932373047e+01
-1.664025306701660156e+01 -3.908286666870117188e+01 -1.833419227600097656e+01
-3.545029449462890625e+01 -5.874008941650390625e+01 -1.310884094238281250e+01
-3.616872787475585938e+01 -6.069794464111328125e+01 -1.697974205017089844e+01
-3.594748687744140625e+01 -5.842484664916992188e+01 -1.897974777221679688e+01
-3.438909912109375000e+01 -5.575710296630859375e+01 -1.557168292999267578e+01
-4.274053955078125000e+01 -5.187041091918945312e+01 -9.833881378173828125e+00
-3.923825454711914062e+01 -5.440555953979492188e+01 -8.988497734069824219e+00
-3.776858520507812500e+01 -4.954289627075195312e+01 -1.089902019500732422e+01
-4.126533126831054688e+01 -4.692621994018554688e+01 -1.187197780609130859e+01
-4.660507965087890625e+01 -5.223818969726562500e+01 -1.266794395446777344e+01
-4.574720764160156250e+01 -4.746114349365234375e+01 -1.483438110351562500e+01
-4.005839920043945312e+01 -4.400652694702148438e+01 -1.386105632781982422e+01
-3.599852371215820312e+01 -4.623511123657226562e+01 -1.305062580108642578e+01
-2.725799942016601562e+01 -3.577054977416992188e+01 -2.464447975158691406e+01
-3.042693710327148438e+01 -3.325246429443359375e+01 -2.751557350158691406e+01
-3.452930450439453125e+01 -4.449715423583984375e+01 -4.204077911376953125e+01
-2.974456405639648438e+01 -4.746947479248046875e+01 -4.121976470947265625e+01
-3.280523300170898438e+01 -4.931174468994140625e+01 -3.429315948486328125e+01
-3.631275558471679688e+01 -4.729358673095703125e+01 -3.593609237670898438e+01
-3.670084762573242188e+01 -5.665802764892578125e+01 -1.025778388977050781e+01
-3.509426879882812500e+01 -5.299931716918945312e+01 -1.238382244110107422e+01
-4.292568206787109375e+01 -5.420052337646484375e+01 -2.580952453613281250e+01
-3.918110656738281250e+01 -5.578856277465820312e+01 -2.453221702575683594e+01
-3.895608139038085938e+01 -5.896849822998046875e+01 -2.226332473754882812e+01
-4.306506347656250000e+01 -5.838626098632812500e+01 -2.384784889221191406e+01
-2.583935165405273438e+01 -4.808514022827148438e+01 -3.708143234252929688e+01
-2.278612899780273438e+01 -4.685596466064453125e+01 -3.369247817993164062e+01
-2.513725280761718750e+01 -4.665889739990234375e+01 -2.958940696716308594e+01
-2.937507629394531250e+01 -4.916476440429687500e+01 -3.125630187988281250e+01
-2.427835083007812500e+01 -4.272408294677734375e+01 -2.581766700744628906e+01
-4.559757232666015625e+01 -5.192498779296875000e+01 -2.496456336975097656e+01
-4.672084426879882812e+01 -4.761722564697265625e+01 -2.173439407348632812e+01
-3.900223159790039062e+01 -3.848756027221679688e+01 -3.592727279663085938e+01
-3.836290740966796875e+01 -4.292773056030273438e+01 -3.740497589111328125e+01
-3.388748168945312500e+01 -4.986872863769531250e+01 -1.412940406799316406e+01
-3.587213134765625000e+01 -5.583322143554687500e+01 -2.141013717651367188e+01
-3.373686981201171875e+01 -5.354652023315429688e+01 -1.777132225036621094e+01
-4.469639205932617188e+01 -4.440923309326171875e+01 -1.710939788818359375e+01
-4.810598754882812500e+01 -5.133224487304687500e+01 -1.932512283325195312e+01
-4.717142486572265625e+01 -6.733361053466796875e+01 -1.849867630004882812e+01
-4.691294479370117188e+01 -5.933638763427734375e+01 -2.160159301757812500e+01
-4.291511535644531250e+01 -6.172309494018554688e+01 -2.231890487670898438e+01
-4.467181015014648438e+01 -6.836566925048828125e+01 -1.928425216674804688e+01
-4.657807540893554688e+01 -5.561690139770507812e+01 -2.297938728332519531e+01
-4.880430221557617188e+01 -5.567306518554687500e+01 -1.743748092651367188e+01
-3.657984924316406250e+01 -6.709970855712890625e+01 -1.026078224182128906e+01
-3.773965454101562500e+01 -6.801361846923828125e+01 -1.549427795410156250e+01
-3.780015945434570312e+01 -6.598994445800781250e+01 -7.641120910644531250e+00
-3.572327804565429688e+01 -3.332855987548828125e+01 -3.133612060546875000e+01
-4.416036605834960938e+01 -6.354610443115234375e+01 -6.648434638977050781e+00
-4.034186935424804688e+01 -6.527529907226562500e+01 -6.139629364013671875e+00
-3.880605697631835938e+01 -6.193786621093750000e+01 -2.027366256713867188e+01
-4.116116714477539062e+01 -6.860022735595703125e+01 -1.851604461669921875e+01
-4.902195358276367188e+01 -6.540364074707031250e+01 -1.544746875762939453e+01
-4.799222564697265625e+01 -6.307525634765625000e+01 -1.017854213714599609e+01
-4.847762298583984375e+01 -7.015268707275390625e+01 -1.400586414337158203e+01
-4.729567718505859375e+01 -6.796076965332031250e+01 -8.909811019897460938e+00
-4.292232513427734375e+01 -6.886894989013671875e+01 -5.790312290191650391e+00
-3.962590789794921875e+01 -6.885807800292968750e+01 -5.835978507995605469e+00
-3.735746383666992188e+01 -6.920973968505859375e+01 -7.407351493835449219e+00
-4.671236419677734375e+01 -7.125894927978515625e+01 -1.745617485046386719e+01
-4.430312347412109375e+01 -7.165665435791015625e+01 -1.859856224060058594e+01
-4.097985076904296875e+01 -7.111107635498046875e+01 -1.807654190063476562e+01
-4.602026748657226562e+01 -7.568228149414062500e+01 -1.652772903442382812e+01
-4.694566726684570312e+01 -7.639033508300781250e+01 -1.257132244110107422e+01
-3.727376556396484375e+01 -8.447637939453125000e+01 -6.572480201721191406e+00
-3.820523452758789062e+01 -8.024478912353515625e+01 -6.343955039978027344e+00
-3.924878692626953125e+01 -8.044805908203125000e+01 -6.331071853637695312e+00
-3.807400512695312500e+01 -8.467079162597656250e+01 -6.346499443054199219e+00
-4.098751068115234375e+01 -7.506329345703125000e+01 -6.029067993164062500e+00
-4.161395645141601562e+01 -7.655435943603515625e+01 -6.428775787353515625e+00
-4.473883438110351562e+01 -7.573807525634765625e+01 -8.076720237731933594e+00
-4.271559524536132812e+01 -8.134265136718750000e+01 -7.845887660980224609e+00
-4.487113189697265625e+01 -8.261012268066406250e+01 -1.234092140197753906e+01
-4.337805175781250000e+01 -8.646409606933593750e+01 -1.143342399597167969e+01
-4.162356948852539062e+01 -8.524139404296875000e+01 -7.314850807189941406e+00
-4.610453414916992188e+01 -7.792565155029296875e+01 -1.119991588592529297e+01
-3.856568527221679688e+01 -8.737247467041015625e+01 -6.421316623687744141e+00
-3.798128509521484375e+01 -8.811483764648437500e+01 -6.754273891448974609e+00
-4.536034011840820312e+01 -7.368478393554687500e+01 -7.977711677551269531e+00
-3.798596191406250000e+01 -7.352026367187500000e+01 -6.268317222595214844e+00
-3.606161117553710938e+01 -8.063442230224609375e+01 -7.172423362731933594e+00
-3.594010162353515625e+01 -8.585379791259765625e+01 -7.515873908996582031e+00
-3.680542755126953125e+01 -8.876911163330078125e+01 -8.303727149963378906e+00
-3.480741119384765625e+01 -7.961537933349609375e+01 -8.768986701965332031e+00
-3.492149353027343750e+01 -8.562212371826171875e+01 -9.107022285461425781e+00
-3.563716888427734375e+01 -8.830177307128906250e+01 -1.017820358276367188e+01
-3.460120391845703125e+01 -7.902446746826171875e+01 -1.168220138549804688e+01
-3.463051986694335938e+01 -8.499602508544921875e+01 -1.132317829132080078e+01
-3.578647613525390625e+01 -7.215693664550781250e+01 -1.157930946350097656e+01
-3.623579788208007812e+01 -7.271928405761718750e+01 -8.189786911010742188e+00
-3.539284515380859375e+01 -8.766318511962890625e+01 -1.123401069641113281e+01
-4.028530883789062500e+01 -8.979185485839843750e+01 -8.107214927673339844e+00
-3.818032455444335938e+01 -8.998670959472656250e+01 -1.017775249481201172e+01
-4.098235321044921875e+01 -8.861043548583984375e+01 -7.686925411224365234e+00
-4.491619873046875000e+01 -8.231951904296875000e+01 -1.365963172912597656e+01
-4.298307037353515625e+01 -8.702053833007812500e+01 -1.285269451141357422e+01
-4.386391067504882812e+01 -8.198545074462890625e+01 -1.571903228759765625e+01
-4.171318054199218750e+01 -8.721427917480468750e+01 -1.422507286071777344e+01
-4.165938568115234375e+01 -8.921026611328125000e+01 -1.120982933044433594e+01
-4.227712631225585938e+01 -8.821461486816406250e+01 -9.901799201965332031e+00
-3.613715362548828125e+01 -6.998802185058593750e+01 -1.093401908874511719e+01
-3.748217773437500000e+01 -7.016792297363281250e+01 -1.510188579559326172e+01
-3.748016357421875000e+01 -7.254515075683593750e+01 -1.556172180175781250e+01
-3.611840057373046875e+01 -7.923242187500000000e+01 -1.514767646789550781e+01
-4.090180206298828125e+01 -7.354252624511718750e+01 -1.807782936096191406e+01
-4.392011260986328125e+01 -7.461183166503906250e+01 -1.815819931030273438e+01
-4.180458831787109375e+01 -8.146101379394531250e+01 -1.705885505676269531e+01
-3.906369781494140625e+01 -8.059382629394531250e+01 -1.719561767578125000e+01
-4.011049652099609375e+01 -8.696258544921875000e+01 -1.491766929626464844e+01
-3.792200469970703125e+01 -8.587796783447265625e+01 -1.528084278106689453e+01
-3.571366500854492188e+01 -8.494892120361328125e+01 -1.384975910186767578e+01
-3.887308502197265625e+01 -8.889122009277343750e+01 -1.287694358825683594e+01
-4.006815338134765625e+01 -8.943156433105468750e+01 -1.229063606262207031e+01
-3.709287261962890625e+01 -8.884501647949218750e+01 -1.161651420593261719e+01
-3.758721160888671875e+01 -8.796502685546875000e+01 -1.320563030242919922e+01
-3.638205718994140625e+01 -8.782793426513671875e+01 -1.238860797882080078e+01
-3.691606140136718750e+01 -4.208439254760742188e+01 -4.035956954956054688e+01
5.293196868896484375e+01 -7.963359069824218750e+01 -5.080717086791992188e+01
4.945119476318359375e+01 -7.810588073730468750e+01 -4.745089721679687500e+01
3.648300552368164062e+01 -8.878273010253906250e+01 -5.301763916015625000e+01
3.914807891845703125e+01 -8.325209045410156250e+01 -4.701367950439453125e+01
3.858768463134765625e+01 -9.162773132324218750e+01 -5.853345870971679688e+01
4.732109451293945312e+01 -8.987223052978515625e+01 -6.285105514526367188e+01
4.242155075073242188e+01 -9.095001220703125000e+01 -6.223549652099609375e+01
4.469668197631835938e+01 -7.937815093994140625e+01 -4.517192840576171875e+01
5.420224761962890625e+01 -8.214858245849609375e+01 -5.574700927734375000e+01
5.213124465942382812e+01 -8.598346710205078125e+01 -6.084207916259765625e+01
5.525618362426757812e+01 -9.012819671630859375e+01 -5.124073028564453125e+01
5.334387207031250000e+01 -9.386079406738281250e+01 -5.609553909301757812e+01
4.856393051147460938e+01 -9.758534240722656250e+01 -5.801345062255859375e+01
4.269950103759765625e+01 -9.770300292968750000e+01 -5.835964965820312500e+01
3.877330398559570312e+01 -9.665995025634765625e+01 -5.618310546875000000e+01
5.317297363281250000e+01 -8.630487823486328125e+01 -4.680161285400390625e+01
4.942107391357421875e+01 -8.413359069824218750e+01 -4.401251602172851562e+01
4.354528045654296875e+01 -8.361781311035156250e+01 -4.301515579223632812e+01
5.169572067260742188e+01 -9.163253021240234375e+01 -4.093427276611328125e+01
5.093882751464843750e+01 -1.018423538208007812e+02 -3.791140365600585938e+01
4.039554977416992188e+01 -1.177252349853515625e+02 -3.666210937500000000e+01
4.070487594604492188e+01 -1.138418579101562500e+02 -4.266348266601562500e+01
4.338245391845703125e+01 -1.139717025756835938e+02 -4.113701248168945312e+01
4.286159515380859375e+01 -1.179436492919921875e+02 -3.614439010620117188e+01
4.376491546630859375e+01 -1.102266616821289062e+02 -4.669072341918945312e+01
4.495311737060546875e+01 -1.108789291381835938e+02 -4.424150466918945312e+01
4.893759536743164062e+01 -1.079082183837890625e+02 -4.223496627807617188e+01
4.796983718872070312e+01 -1.114005126953125000e+02 -3.711411285400390625e+01
5.020131301879882812e+01 -1.046777725219726562e+02 -3.735266113281250000e+01
4.968681716918945312e+01 -1.062591552734375000e+02 -3.334169387817382812e+01
4.780021667480468750e+01 -1.148258895874023438e+02 -3.289339828491210938e+01
4.432065963745117188e+01 -1.190336303710937500e+02 -3.295162200927734375e+01
4.679407119750976562e+01 -1.169402313232421875e+02 -2.919691848754882812e+01
4.175736618041992188e+01 -1.191962280273437500e+02 -3.210724639892578125e+01
4.949367904663085938e+01 -1.069786605834960938e+02 -4.350941085815429688e+01
4.077736663818359375e+01 -1.060624771118164062e+02 -5.181555938720703125e+01
3.793723297119140625e+01 -1.117449111938476562e+02 -4.422838592529296875e+01
3.758196258544921875e+01 -1.156277694702148438e+02 -3.667089843750000000e+01
3.975191497802734375e+01 -1.171840438842773438e+02 -3.150954818725585938e+01
3.533696746826171875e+01 -1.086500625610351562e+02 -4.355628585815429688e+01
3.579012298583984375e+01 -1.119496231079101562e+02 -3.656952667236328125e+01
3.802722930908203125e+01 -1.132902374267578125e+02 -3.145480918884277344e+01
3.448379516601562500e+01 -1.046371841430664062e+02 -4.144873809814453125e+01
3.568903350830078125e+01 -1.083979721069335938e+02 -3.527662277221679688e+01
3.604277801513671875e+01 -9.588502502441406250e+01 -5.013750457763671875e+01
3.751280975341796875e+01 -1.013053207397460938e+02 -5.278978347778320312e+01
3.762722396850585938e+01 -1.105629730224609375e+02 -3.169248390197753906e+01
4.548969650268554688e+01 -1.167110137939453125e+02 -2.786333084106445312e+01
4.302943420410156250e+01 -1.144899902343750000e+02 -2.742280578613281250e+01
4.958434295654296875e+01 -1.026840362548828125e+02 -3.239670944213867188e+01
4.901749801635742188e+01 -1.096380386352539062e+02 -2.950163269042968750e+01
4.834887313842773438e+01 -1.070362548828125000e+02 -2.829743576049804688e+01
4.842401504516601562e+01 -9.874909210205078125e+01 -3.249546432495117188e+01
4.691813278198242188e+01 -1.049818725585937500e+02 -2.793111228942871094e+01
4.711345291137695312e+01 -1.119853286743164062e+02 -2.662935256958007812e+01
4.826680374145507812e+01 -1.130931854248046875e+02 -2.814814758300781250e+01
3.652590179443359375e+01 -9.293412780761718750e+01 -5.234704589843750000e+01
3.808804321289062500e+01 -8.729656982421875000e+01 -4.726412963867187500e+01
3.807841873168945312e+01 -8.999022674560546875e+01 -4.526279067993164062e+01
3.667069625854492188e+01 -9.979558563232421875e+01 -3.794910049438476562e+01
4.317323303222656250e+01 -8.698672485351562500e+01 -4.072472000122070312e+01
4.860668182373046875e+01 -8.846422576904296875e+01 -4.001097869873046875e+01
4.588192367553710938e+01 -9.665917205810546875e+01 -3.272286224365234375e+01
4.165301513671875000e+01 -9.684062194824218750e+01 -3.436599349975585938e+01
4.424172210693359375e+01 -1.035836944580078125e+02 -2.849890136718750000e+01
