-2.771936607360839844e+01 -2.504575347900390625e+01 -7.319226074218750000e+01
-2.943332290649414062e+01 -3.550251388549804688e+01 -7.719056701660156250e+01
3.983855056762695312e+01 -7.146276855468750000e+01 5.949347019195556641e-01
4.059318923950195312e+01 -6.790945434570312500e+01 -5.273633003234863281e-01
3.053441286087036133e+00 -4.442373657226562500e+01 -5.772771072387695312e+01
3.427359008789062500e+01 -2.058021163940429688e+01 -4.399927520751953125e+01
2.748898267745971680e+00 -4.573212432861328125e+01 -6.846003723144531250e+01
-1.934292602539062500e+01 -3.642184066772460938e+01 -3.148934555053710938e+01
-2.146663284301757812e+01 -4.385753631591796875e+01 -3.228257751464843750e+01
-1.720223045349121094e+01 -4.745064544677734375e+01 -3.043117713928222656e+01
-1.722494125366210938e+01 -4.294901275634765625e+01 -2.681257247924804688e+01
2.361151885986328125e+01 -6.194589996337890625e+01 -1.596902966499328613e+00
2.644471359252929688e+01 -6.531491088867187500e+01 -5.129681110382080078e+00
2.657571983337402344e+01 -6.794965362548828125e+01 -3.243323564529418945e+00
2.354424858093261719e+01 -6.508290100097656250e+01 8.050345182418823242e-01
3.261005783081054688e+01 -5.480532073974609375e+01 -2.159129714965820312e+01
3.824245452880859375e+01 -5.324633789062500000e+01 -2.248994827270507812e+01
3.723757934570312500e+01 -5.662034225463867188e+01 -1.773503494262695312e+01
3.194762229919433594e+01 -5.711896896362304688e+01 -1.766737556457519531e+01
4.226439666748046875e+01 -5.076047515869140625e+01 -1.970257568359375000e+01
4.157568740844726562e+01 -5.423069000244140625e+01 -1.548566627502441406e+01
2.396043968200683594e+01 -5.871777343750000000e+01 3.089586973190307617e+00
2.896030807495117188e+01 -5.639731597900390625e+01 6.770212650299072266e+00
2.794448852539062500e+01 -4.540653228759765625e+01 -4.542407989501953125e+00
2.367947769165039062e+01 -5.084761810302734375e+01 -6.543549537658691406e+00
-3.456352233886718750e+00 -9.536824226379394531e+00 -7.138769531250000000e+01
-1.304010295867919922e+01 -1.203973484039306641e+01 -7.520363616943359375e+01
-1.634448242187500000e+01 -1.761609268188476562e+01 -6.124373245239257812e+01
-2.030118179321289062e+01 -2.295762634277343750e+01 -4.824882888793945312e+01
-2.229722023010253906e+01 -3.060523605346679688e+01 -3.729139328002929688e+01
-1.294151306152343750e+01 -2.489176368713378906e+01 -3.209125900268554688e+01
-2.226967430114746094e+01 -1.981967353820800781e+01 -6.587617492675781250e+01
2.033366394042968750e+01 -4.211046600341796875e+01 -1.130935096740722656e+01
2.646120071411132812e+01 -3.728612899780273438e+01 -1.232173824310302734e+01
1.957253456115722656e+01 -3.429483795166015625e+01 -1.256854534149169922e+01
-3.464553833007812500e+00 -4.755599594116210938e+01 -7.066037750244140625e+01
4.130781936645507812e+01 -6.443499755859375000e+01 -2.599935770034790039e+00
3.168263244628906250e+01 -7.286351203918457031e+00 -9.684951019287109375e+01
1.944879913330078125e+01 -1.566837430000305176e+00 -9.593463134765625000e+01
2.122189331054687500e+01 -4.581479549407958984e+00 -8.903340911865234375e+01
3.430016708374023438e+01 -1.120949554443359375e+01 -8.973267364501953125e+01
3.224366760253906250e+01 -6.731662750244140625e+01 -7.263571739196777344e+00
3.773282623291015625e+01 -6.697534179687500000e+01 -6.293102741241455078e+00
-1.209829902648925781e+01 -5.251025390625000000e+01 -3.789853668212890625e+01
-1.044595146179199219e+01 -5.146594238281250000e+01 -3.253665924072265625e+01
-1.312026691436767578e+01 -5.131048583984375000e+01 -3.221289443969726562e+01
-1.686747932434082031e+01 -5.479127883911132812e+01 -3.714049530029296875e+01
-1.753918838500976562e+01 -1.362414360046386719e+01 -7.892785644531250000e+01
-3.398198699951171875e+01 -4.443053054809570312e+01 -4.822899246215820312e+01
-3.034039688110351562e+01 -3.733599090576171875e+01 -4.212522125244140625e+01
-1.056749534606933594e+01 -6.934480190277099609e+00 -8.716326904296875000e+01
-1.720219612121582031e+00 -5.111129760742187500e+00 -8.396256256103515625e+01
-1.503595113754272461e+00 -1.125147581100463867e+00 -9.220542144775390625e+01
-1.379645109176635742e+00 -2.759703063964843750e+01 -2.222704505920410156e+01
3.727471590042114258e+00 -9.097264289855957031e+00 -6.701238250732421875e+01
5.325934410095214844e+00 -5.295061588287353516e+00 -8.098957824707031250e+01
6.160346031188964844e+00 -1.332558870315551758e+00 -9.112542724609375000e+01
5.998673439025878906e+00 2.391218423843383789e+00 -9.738919830322265625e+01
-2.480155706405639648e+00 2.131453275680541992e+00 -9.813707733154296875e+01
3.437473297119140625e+01 -5.719813156127929688e+01 7.336222648620605469e+00
2.851990699768066406e+01 -6.126982879638671875e+01 9.690126419067382812e+00
-3.317780733108520508e+00 3.713079929351806641e+00 -1.052225189208984375e+02
5.879721641540527344e+00 4.666587352752685547e+00 -1.035973739624023438e+02
1.391845989227294922e+01 -6.075674533843994141e+00 -7.844248962402343750e+01
2.425889968872070312e+01 -8.907934188842773438e+00 -7.557925415039062500e+01
1.193072509765625000e+01 -9.044253349304199219e+00 -6.487269592285156250e+01
2.241999435424804688e+01 -1.146235179901123047e+01 -6.098953247070312500e+01
8.315793037414550781e+00 -2.087092018127441406e+01 -2.100646591186523438e+01
2.328713989257812500e+01 -7.805619812011718750e+01 9.483391761779785156e+00
2.389050865173339844e+01 -6.765742492675781250e+01 7.558003425598144531e+00
2.326967430114746094e+01 -6.917752838134765625e+01 2.488876819610595703e+00
2.199736595153808594e+01 -7.879281616210937500e+01 6.004502773284912109e+00
2.397584915161132812e+01 -6.279288482666015625e+01 5.840053558349609375e+00
2.813624000549316406e+01 -6.614971160888671875e+01 1.081302261352539062e+01
3.547415161132812500e+01 -1.795859336853027344e+01 -5.928126144409179688e+01
1.946155929565429688e+01 -5.044489288330078125e+01 -1.761713600158691406e+01
3.859071731567382812e+01 -1.690853881835937500e+01 -7.573466491699218750e+01
4.709408187866210938e+01 -2.807429122924804688e+01 -5.372134399414062500e+01
4.916910934448242188e+01 -2.849930953979492188e+01 -6.653610229492187500e+01
4.191041564941406250e+01 -2.018050956726074219e+01 -9.278276062011718750e+01
4.803934097290039062e+01 -2.857542419433593750e+01 -8.229227447509765625e+01
3.709336471557617188e+01 -1.361309242248535156e+01 -1.061911163330078125e+02
3.883268737792968750e+01 -1.622834587097167969e+01 -9.914269256591796875e+01
5.273079681396484375e+01 -3.912542724609375000e+01 -7.192864990234375000e+01
3.329238891601562500e+01 -8.065511322021484375e+01 -7.480846643447875977e-01
2.821931076049804688e+01 -7.973117065429687500e+01 -1.192268848419189453e+00
3.056772804260253906e+01 -4.554469108581542969e+00 -1.034300765991210938e+02
3.096448898315429688e+01 -6.747173309326171875e+01 -6.175275421142578125e+01
-1.123710393905639648e+00 -4.805084228515625000e+01 -7.979357910156250000e+01
3.229084491729736328e+00 -4.665487289428710938e+01 -7.781983184814453125e+01
-1.954341697692871094e+01 -4.645465469360351562e+01 -8.794380187988281250e+01
-7.990710258483886719e+00 -5.001549911499023438e+01 -8.341487884521484375e+01
3.690945434570312500e+01 -8.057756805419921875e+01 1.849349617958068848e+00
6.523388624191284180e-01 -4.708285522460937500e+01 -1.720979309082031250e+01
1.072805643081665039e+00 -4.649585342407226562e+01 -1.909369659423828125e+01
4.674171829223632812e+01 -6.938991546630859375e+01 -6.652201843261718750e+01
4.805828094482421875e+01 -7.083205413818359375e+01 -5.994829559326171875e+01
5.666658782958984375e+01 -6.180161285400390625e+01 -5.800982666015625000e+01
5.360880279541015625e+01 -6.701805114746093750e+01 -6.005551910400390625e+01
5.297964477539062500e+01 -6.388674163818359375e+01 -6.753034973144531250e+01
5.583887863159179688e+01 -5.720162963867187500e+01 -6.584138488769531250e+01
4.549608230590820312e+00 -4.770639801025390625e+01 -8.815066528320312500e+01
1.308438420295715332e+00 -4.815294647216796875e+01 -8.870838928222656250e+01
-2.526111793518066406e+01 -2.199197769165039062e+01 -8.519941711425781250e+01
-2.672174644470214844e+01 -3.410903930664062500e+01 -8.761333465576171875e+01
4.323074722290039062e+01 -4.598148727416992188e+01 -1.615299224853515625e+01
4.111450958251953125e+01 -3.540436553955078125e+01 -1.903650283813476562e+01
4.043622589111328125e+01 -4.060163497924804688e+01 -1.240946483612060547e+01
3.468733978271484375e+01 -4.313687896728515625e+01 -5.221242427825927734e+00
1.984562301635742188e+01 -4.714933776855468750e+01 -1.272699546813964844e+01
2.347945022583007812e+01 -4.712601470947265625e+01 -1.219862079620361328e+01
1.698816680908203125e+01 -5.370648193359375000e+01 -9.614521789550781250e+01
1.235774803161621094e+01 -5.205152130126953125e+01 -8.378729248046875000e+01
3.574820709228515625e+01 -6.414781188964843750e+01 -4.876546096801757812e+01
3.978375625610351562e+01 -6.178064727783203125e+01 -4.376541519165039062e+01
1.072650432586669922e+01 -4.803836822509765625e+01 -3.489382171630859375e+01
6.822999715805053711e-01 -3.401326751708984375e+01 -1.389985942840576172e+01
8.776641845703125000e+00 -2.873083496093750000e+01 -1.230326652526855469e+01
1.067491626739501953e+01 -4.982323455810546875e+01 -2.579312705993652344e+01
3.667194366455078125e+01 -7.948680877685546875e+01 8.652279853820800781e+00
3.781661224365234375e+01 -8.041716766357421875e+01 4.806598186492919922e+00
3.455064010620117188e+01 -3.670348358154296875e+01 -1.132223701477050781e+01
-8.604957580566406250e+00 -5.066611099243164062e+01 -4.439687728881835938e+01
-3.972703933715820312e+00 -3.379431915283203125e+01 -1.996701431274414062e+01
-2.112138509750366211e+00 -4.092364501953125000e+01 -1.456278038024902344e+01
-3.197275352478027344e+01 -4.930509185791015625e+01 -5.319052886962890625e+01
1.902655982971191406e+01 1.247140169143676758e+00 -1.027296371459960938e+02
2.593064880371093750e+01 -7.155635070800781250e+01 -1.550034880638122559e+00
2.410365486145019531e+01 -7.869120788574218750e+01 8.029216527938842773e-01
2.659886550903320312e+01 -7.710683441162109375e+01 1.161027145385742188e+01
3.241889190673828125e+01 -7.698293304443359375e+01 1.167957305908203125e+01
-2.333616638183593750e+01 -3.397863006591796875e+01 -9.676707458496093750e+01
5.598399162292480469e+00 -4.636014556884765625e+01 -7.611313629150390625e+01
5.512574005126953125e+01 -4.765542602539062500e+01 -6.422569274902343750e+01
5.697938919067382812e+01 -5.600793457031250000e+01 -5.530685424804687500e+01
1.065289306640625000e+01 -4.979601287841796875e+01 -1.963763427734375000e+01
-2.511903381347656250e+01 -3.822124481201171875e+01 -3.623557281494140625e+01
-1.339055824279785156e+01 -3.226707839965820312e+01 -2.579751968383789062e+01
-1.315874481201171875e+01 -3.921722412109375000e+01 -2.088610458374023438e+01
-6.975821495056152344e+00 -4.043593215942382812e+01 -1.697909545898437500e+01
-7.526975274085998535e-01 -4.382981109619140625e+01 -1.573769092559814453e+01
2.544928359985351562e+01 -8.241477966308593750e+01 1.156519126892089844e+01
3.104272079467773438e+01 -8.232785034179687500e+01 1.183823871612548828e+01
3.529315948486328125e+01 -8.469987487792968750e+01 9.016902923583984375e+00
3.662490081787109375e+01 -8.517053222656250000e+01 5.514969825744628906e+00
3.576965713500976562e+01 -8.412501525878906250e+01 2.032329082489013672e+00
2.234391403198242188e+01 -8.332066345214843750e+01 9.349286079406738281e+00
2.136807250976562500e+01 -8.389562988281250000e+01 6.138542652130126953e+00
2.345802879333496094e+01 -8.221422576904296875e+01 1.348746180534362793e+00
2.156650161743164062e+01 -8.836868286132812500e+01 8.528697013854980469e+00
2.443201065063476562e+01 -9.117590332031250000e+01 1.065929603576660156e+01
3.253295898437500000e+01 -9.875671386718750000e+01 5.755904197692871094e+00
3.307039642333984375e+01 -9.345547485351562500e+01 8.517984390258789062e+00
3.153810501098632812e+01 -9.566197204589843750e+01 8.863841056823730469e+00
3.070670700073242188e+01 -1.007665710449218750e+02 7.185508728027343750e+00
2.891537475585937500e+01 -1.052907714843750000e+02 6.097105503082275391e+00
3.052818679809570312e+01 -1.038133163452148438e+02 4.625324249267578125e+00
2.910936355590820312e+01 -9.290318298339843750e+01 1.077930068969726562e+01
2.757654380798339844e+01 -9.963684844970703125e+01 8.866539001464843750e+00
2.397474670410156250e+01 -9.877552032470703125e+01 8.681058883666992188e+00
2.334023475646972656e+01 -1.039951553344726562e+02 7.397020816802978516e+00
2.613873863220214844e+01 -1.048260269165039062e+02 7.578669548034667969e+00
2.530524635314941406e+01 -9.422287750244140625e+01 1.017735767364501953e+01
2.947234535217285156e+01 -9.053755187988281250e+01 1.134151172637939453e+01
2.795647621154785156e+01 -1.069289093017578125e+02 4.103707313537597656e+00
2.752931785583496094e+01 -1.069480743408203125e+02 5.487359046936035156e+00
2.528713989257812500e+01 -1.067851562500000000e+02 6.406661033630371094e+00
2.470742034912109375e+01 -1.077940521240234375e+02 5.003619194030761719e+00
3.547271728515625000e+01 -8.992881011962890625e+01 5.160895347595214844e+00
3.285629272460937500e+01 -9.795536804199218750e+01 3.887675523757934570e+00
3.031228256225585938e+01 -1.031205825805664062e+02 2.712559461593627930e+00
2.754929733276367188e+01 -1.061896591186523438e+02 2.792492628097534180e+00
3.135568237304687500e+01 -9.789500427246093750e+01 1.322708368301391602e+00
2.914290428161621094e+01 -1.022515487670898438e+02 1.229202628135681152e+00
2.670013046264648438e+01 -1.047033462524414062e+02 1.623862028121948242e+00
2.867107009887695312e+01 -9.759285736083984375e+01 -2.597695887088775635e-01
2.707558250427246094e+01 -1.015983047485351562e+02 3.016894459724426270e-01
3.227471923828125000e+01 -8.627624511718750000e+01 1.068793311715126038e-01
3.500416183471679688e+01 -8.696943664550781250e+01 2.199498653411865234e+00
2.606024742126464844e+01 -1.036101913452148438e+02 9.655256271362304688e-01
2.395834159851074219e+01 -1.058186035156250000e+02 3.378852128982543945e+00
2.176736450195312500e+01 -9.623995971679687500e+01 7.932563781738281250e+00
2.148411560058593750e+01 -1.032052001953125000e+02 6.128964424133300781e+00
2.068101882934570312e+01 -9.547934722900390625e+01 6.435141086578369141e+00
2.080115127563476562e+01 -1.024436492919921875e+02 4.815063476562500000e+00
2.210562705993652344e+01 -1.061771469116210938e+02 5.362914085388183594e+00
2.319918060302734375e+01 -1.061330795288085938e+02 6.458956241607666016e+00
3.253359985351562500e+01 -8.281557464599609375e+01 -4.390186667442321777e-01
2.717180252075195312e+01 -8.200752258300781250e+01 -7.749404907226562500e-01
2.712916183471679688e+01 -8.522552490234375000e+01 -6.082414984703063965e-01
2.514143943786621094e+01 -9.680564880371093750e+01 -3.633035421371459961e-01
2.327383041381835938e+01 -8.570649719238281250e+01 1.253819346427917480e+00
2.089109802246093750e+01 -8.861103057861328125e+01 5.213284492492675781e+00
2.040971374511718750e+01 -9.594058227539062500e+01 4.067197322845458984e+00
2.165278244018554688e+01 -9.603609466552734375e+01 1.635597229003906250e+00
2.084670066833496094e+01 -1.014008331298828125e+02 3.238464832305908203e+00
2.194083786010742188e+01 -1.008494262695312500e+02 1.715013146400451660e+00
2.444135475158691406e+01 -1.012086791992187500e+02 4.251399934291839600e-01
2.197705268859863281e+01 -1.046196746826171875e+02 3.057952642440795898e+00
2.167103195190429688e+01 -1.057522201538085938e+02 4.492514610290527344e+00
2.413332939147949219e+01 -1.052498779296875000e+02 2.219524860382080078e+00
2.247586441040039062e+01 -1.035064544677734375e+02 2.075983524322509766e+00
2.428775978088378906e+01 -1.040403671264648438e+02 1.367728948593139648e+00
9.440414428710937500e+00 -6.811789703369140625e+01 8.989294052124023438e+00
3.548373699188232422e+00 -6.970790100097656250e+01 6.546998023986816406e+00
4.629147529602050781e+00 -6.582613372802734375e+01 3.953096389770507812e+00
9.996406555175781250e+00 -6.463543701171875000e+01 6.764090061187744141e+00
7.162016391754150391e+00 -6.095109939575195312e+01 1.920853614807128906e+01
1.083337688446044922e+01 -6.353078460693359375e+01 1.648836135864257812e+01
1.128688621520996094e+01 -5.954349517822265625e+01 1.509744834899902344e+01
7.042043209075927734e+00 -5.621550750732421875e+01 1.729169845581054688e+01
1.704881429672241211e+00 -5.965821075439453125e+01 1.930031204223632812e+01
1.499713420867919922e+00 -5.449396896362304688e+01 1.648965644836425781e+01
7.919882297515869141e+00 -5.219693756103515625e+01 1.435201740264892578e+01
1.214077758789062500e+01 -5.573466110229492188e+01 1.218148231506347656e+01
1.692772483825683594e+01 -4.416686248779296875e+01 -5.118833065032958984e+00
1.355278778076171875e+01 -3.880350875854492188e+01 -2.551597833633422852e+00
3.794410228729248047e+00 -5.056763839721679688e+01 -1.428655719757080078e+01
8.418897390365600586e-01 -4.952098846435546875e+01 -1.274314880371093750e+01
1.135239124298095703e+01 -6.614274597167968750e+01 1.257375907897949219e+01
1.211195087432861328e+01 -6.237012863159179688e+01 1.136288356781005859e+01
-3.360068798065185547e+00 -6.025132369995117188e+01 2.116560459136962891e+00
1.056261301040649414e+00 -6.250667572021484375e+01 7.227407693862915039e-01
-4.721413254737854004e-01 -6.511852264404296875e+01 3.697583436965942383e+00
-4.740536689758300781e+00 -6.260150146484375000e+01 5.850728988647460938e+00
1.537430000305175781e+01 -4.973717498779296875e+01 -1.148573875427246094e+01
9.897179603576660156e+00 -5.124537277221679688e+01 -1.377969169616699219e+01
1.686475753784179688e+01 -4.789649963378906250e+01 -8.403936386108398438e+00
-5.629545211791992188e+00 -5.658182525634765625e+01 6.037878990173339844e+00
-4.131722450256347656e+00 -5.246837615966796875e+01 1.028771400451660156e+01
-1.055474504828453064e-01 -3.937200164794921875e+01 -4.975177764892578125e+00
-2.245719194412231445e+00 -4.486475753784179688e+01 -8.542153358459472656e+00
1.276232719421386719e+01 -5.926340866088867188e+01 8.648328781127929688e+00
6.373943328857421875e+00 -6.320594406127929688e+01 1.515470623970031738e+00
1.069107723236083984e+01 -6.209876251220703125e+01 4.230348110198974609e+00
1.635433435440063477e+00 -5.044430541992187500e+01 1.325892639160156250e+01
-4.191532611846923828e+00 -5.666871261596679688e+01 1.389836883544921875e+01
-6.611355781555175781e+00 -7.448799133300781250e+01 1.819981002807617188e+01
-6.208039283752441406e+00 -6.381053543090820312e+01 1.267501926422119141e+01
-5.284026622772216797e+00 -6.645684051513671875e+01 8.882543563842773438e+00
-6.425406455993652344e+00 -7.711854553222656250e+01 1.477575206756591797e+01
-6.037682533264160156e+00 -5.971125030517578125e+01 1.008863258361816406e+01
-3.970200061798095703e+00 -6.105390548706054688e+01 1.650447654724121094e+01
6.372012615203857422e+00 -8.065805053710937500e+01 1.394613456726074219e+01
5.516856908798217773e-01 -8.068077850341796875e+01 1.165582275390625000e+01
8.874539375305175781e+00 -7.951468658447265625e+01 1.722914886474609375e+01
6.409556388854980469e+00 -3.647696685791015625e+01 -2.550098896026611328e+00
6.284873008728027344e+00 -7.327766418457031250e+01 2.321658325195312500e+01
9.168626785278320312e+00 -7.706082916259765625e+01 2.003795242309570312e+01
-1.779939651489257812e+00 -6.854978942871093750e+01 6.382866859436035156e+00
-4.087744235992431641e+00 -7.958547973632812500e+01 1.243778800964355469e+01
-4.513964653015136719e+00 -7.251671600341796875e+01 2.116370582580566406e+01
1.001787066459655762e+00 -7.051956939697265625e+01 2.352321434020996094e+01
-4.577563285827636719e+00 -7.774329376220703125e+01 2.290422058105468750e+01
4.462906718254089355e-01 -7.666383361816406250e+01 2.517738914489746094e+01
5.996006965637207031e+00 -7.914347839355468750e+01 2.461549186706542969e+01
8.574522018432617188e+00 -8.164045715332031250e+01 2.145240020751953125e+01
8.344839096069335938e+00 -8.298841857910156250e+01 1.822254562377929688e+01
-6.759209632873535156e+00 -7.964437866210937500e+01 2.012642860412597656e+01
-6.764216423034667969e+00 -8.173736572265625000e+01 1.667161560058593750e+01
-3.893357038497924805e+00 -8.236326599121093750e+01 1.331543731689453125e+01
-6.752886295318603516e+00 -8.600811767578125000e+01 2.082107162475585938e+01
-4.875413417816162109e+00 -8.575563812255859375e+01 2.417156982421875000e+01
5.246367454528808594e+00 -9.857951354980468750e+01 2.627597427368164062e+01
6.212342262268066406e+00 -9.320274353027343750e+01 2.601283836364746094e+01
4.110314846038818359e+00 -9.324720764160156250e+01 2.708088684082031250e+01
3.522405624389648438e+00 -9.832888031005859375e+01 2.766649436950683594e+01
5.125782966613769531e+00 -8.753102111816406250e+01 2.642609596252441406e+01
3.403721570968627930e+00 -8.907316589355468750e+01 2.697122192382812500e+01
-4.398126006126403809e-01 -8.732216644287109375e+01 2.679308509826660156e+01
-3.631862699985504150e-01 -9.293574523925781250e+01 2.717815589904785156e+01
-4.378745079040527344e+00 -9.214800262451171875e+01 2.499679374694824219e+01
-4.625906944274902344e+00 -9.731426239013671875e+01 2.596910476684570312e+01
-1.197418570518493652e+00 -9.830122375488281250e+01 2.828093338012695312e+01
-3.476301670074462891e+00 -8.828734588623046875e+01 2.555479240417480469e+01
2.241788387298583984e+00 -1.011458129882812500e+02 2.773253440856933594e+01
2.625794172286987305e+00 -1.025608139038085938e+02 2.649786376953125000e+01
-1.291151940822601318e-01 -8.452664184570312500e+01 2.662351608276367188e+01
8.064930915832519531e+00 -8.555674743652343750e+01 2.313614463806152344e+01
7.394830226898193359e+00 -9.381278228759765625e+01 2.400154495239257812e+01
5.594995021820068359e+00 -9.949554443359375000e+01 2.426313400268554688e+01
2.204524517059326172e+00 -1.033824615478515625e+02 2.451002883911132812e+01
6.841935157775878906e+00 -9.496875762939453125e+01 2.099199485778808594e+01
4.976539611816406250e+00 -1.000438156127929688e+02 2.218463897705078125e+01
1.899190187454223633e+00 -1.028426132202148438e+02 2.274387359619140625e+01
4.423888206481933594e+00 -9.547209167480468750e+01 1.792914199829101562e+01
2.810160160064697266e+00 -1.001925659179687500e+02 1.979222679138183594e+01
5.339624404907226562e+00 -8.547094726562500000e+01 1.541487407684326172e+01
8.083917617797851562e+00 -8.581599426269531250e+01 1.896084213256835938e+01
1.565742015838623047e+00 -1.019456558227539062e+02 2.117568206787109375e+01
-6.415020227432250977e-01 -1.036330337524414062e+02 2.610569381713867188e+01
-3.340989053249359131e-01 -1.041219940185546875e+02 2.341032409667968750e+01
-9.653168916702270508e-01 -1.019125976562500000e+02 2.780967712402343750e+01
-5.663437843322753906e+00 -9.210563659667968750e+01 2.343811607360839844e+01
-5.487664222717285156e+00 -9.792588806152343750e+01 2.416340255737304688e+01
-6.386279106140136719e+00 -9.245767211914062500e+01 2.130154800415039062e+01
-5.579653739929199219e+00 -9.894361114501953125e+01 2.236069297790527344e+01
-3.994206190109252930e+00 -1.017291107177734375e+02 2.444121551513671875e+01
-3.935487270355224609e+00 -1.015407257080078125e+02 2.583057785034179688e+01
5.694351196289062500e+00 -8.298405456542968750e+01 1.474117755889892578e+01
3.709490299224853516e-01 -8.283142089843750000e+01 1.261117267608642578e+01
4.109513759613037109e-01 -8.502111053466796875e+01 1.340861797332763672e+01
2.905101776123046875e-01 -9.481908416748046875e+01 1.617254257202148438e+01
-3.987384319305419922e+00 -8.472744750976562500e+01 1.420567321777343750e+01
-6.563066005706787109e+00 -8.612380981445312500e+01 1.762868118286132812e+01
-6.000699520111083984e+00 -9.256833648681640625e+01 1.909200668334960938e+01
-3.648743391036987305e+00 -9.387634277343750000e+01 1.695148086547851562e+01
-5.291735172271728516e+00 -9.896565246582031250e+01 2.082600402832031250e+01
-3.925876140594482422e+00 -9.835853576660156250e+01 1.870685386657714844e+01
-3.163863420486450195e-01 -9.932447814941406250e+01 1.826476097106933594e+01
-3.292388439178466797e+00 -1.009257278442382812e+02 2.201176834106445312e+01
-3.484352111816406250e+00 -1.011146850585937500e+02 2.329016685485839844e+01
-3.137885630130767822e-01 -1.030159683227539062e+02 2.183401107788085938e+01
-3.181933879852294922e+00 -1.010589981079101562e+02 2.039348220825195312e+01
-5.391799807548522949e-01 -1.020496826171875000e+02 2.073124313354492188e+01
1.238394618034362793e+00 -6.942887115478515625e+01 -1.703000831604003906e+01
-2.264053106307983398e+00 -7.033189392089843750e+01 -2.136362075805664062e+01
-2.874240398406982422e+00 -6.720987701416015625e+01 -2.144890213012695312e+01
4.987974166870117188e-01 -6.518496704101562500e+01 -1.650603485107421875e+01
-4.418724060058593750e+00 -7.047658538818359375e+01 -7.970681667327880859e+00
-7.093659639358520508e-01 -7.011690521240234375e+01 -9.407342910766601562e+00
-1.792901754379272461e+00 -6.662953186035156250e+01 -8.554499626159667969e+00
-5.915305614471435547e+00 -6.561821746826171875e+01 -6.960156440734863281e+00
-7.852916717529296875e+00 -7.309658050537109375e+01 -9.202771186828613281e+00
-1.077590656280517578e+01 -6.583929443359375000e+01 -7.983750343322753906e+00
-6.945266723632812500e+00 -6.029853439331054688e+01 -7.570916652679443359e+00
-2.580862522125244141e+00 -6.289115142822265625e+01 -8.264545440673828125e+00
-1.712948560714721680e+00 -4.820402145385742188e+01 -1.432755088806152344e+01
-7.108506202697753906e+00 -4.666250991821289062e+01 -1.324331855773925781e+01
1.265528321266174316e+00 -6.947834014892578125e+01 -1.266818046569824219e+01
3.149445950984954834e-01 -6.630281829833984375e+01 -1.187875366210937500e+01
-1.160673332214355469e+01 -6.584182739257812500e+01 -2.250995826721191406e+01
-7.322566032409667969e+00 -6.527285003662109375e+01 -2.339274024963378906e+01
-8.063647270202636719e+00 -6.837786865234375000e+01 -2.249514198303222656e+01
-1.182783699035644531e+01 -6.918161010742187500e+01 -2.105910682678222656e+01
2.861712574958801270e-01 -5.084439849853515625e+01 -2.247294998168945312e+01
-3.997226715087890625e+00 -5.242794036865234375e+01 -2.736087989807128906e+01
4.809039235115051270e-01 -4.997741699218750000e+01 -1.821363830566406250e+01
-1.540023231506347656e+01 -6.550953674316406250e+01 -1.856839561462402344e+01
-1.600634956359863281e+01 -6.241582107543945312e+01 -1.360810375213623047e+01
-1.661090278625488281e+01 -5.001026153564453125e+01 -2.140774536132812500e+01
-1.543478202819824219e+01 -5.247248458862304688e+01 -2.578507614135742188e+01
-3.114601969718933105e-01 -6.356069946289062500e+01 -1.153088474273681641e+01
-2.524222373962402344e+00 -6.424273681640625000e+01 -2.178157615661621094e+01
2.982363104820251465e-01 -6.311341094970703125e+01 -1.676633834838867188e+01
-1.199585819244384766e+01 -6.005430221557617188e+01 -9.040712356567382812e+00
-1.443200111389160156e+01 -6.789835357666015625e+01 -1.209562683105468750e+01
-4.844117164611816406e+00 -8.771634674072265625e+01 -1.895375633239746094e+01
-1.285670280456542969e+01 -7.329080963134765625e+01 -1.682781028747558594e+01
-1.039061546325683594e+01 -7.294115447998046875e+01 -2.074757957458496094e+01
-3.962446928024291992e+00 -8.712890625000000000e+01 -2.179605484008789062e+01
-1.455625724792480469e+01 -6.966129302978515625e+01 -1.714480590820312500e+01
-1.190187454223632812e+01 -7.335919952392578125e+01 -1.237852001190185547e+01
5.921494483947753906e+00 -8.210463714599609375e+01 -2.021850967407226562e+01
2.520456552505493164e+00 -8.285697937011718750e+01 -2.294587135314941406e+01
6.609488010406494141e+00 -8.136926269531250000e+01 -1.695577621459960938e+01
-1.312642383575439453e+01 -4.661415863037109375e+01 -1.585388469696044922e+01
-1.088408851623535156e+01 -5.323762893676757812e+01 -2.892570114135742188e+01
3.835422992706298828e+00 -8.354151916503906250e+01 -1.278020191192626953e+01
5.970716953277587891e+00 -8.208100891113281250e+01 -1.463807392120361328e+01
-7.171778678894042969e+00 -7.167179107666015625e+01 -2.206197547912597656e+01
-1.516244888305664062e+00 -8.526212310791015625e+01 -2.338830184936523438e+01
-4.173168182373046875e+00 -8.670408630371093750e+01 -1.544443798065185547e+01
-7.555204629898071289e-01 -8.476029968261718750e+01 -1.249729156494140625e+01
-1.724841475486755371e+00 -9.098708343505859375e+01 -1.724879837036132812e+01
1.598194360733032227e+00 -8.891163635253906250e+01 -1.434507274627685547e+01
6.103597164154052734e+00 -8.761640930175781250e+01 -1.449117755889892578e+01
8.158038139343261719e+00 -8.599977874755859375e+01 -1.628357315063476562e+01
8.579402923583984375e+00 -8.500753021240234375e+01 -1.854256439208984375e+01
-2.252448320388793945e+00 -9.205163574218750000e+01 -2.041383171081542969e+01
-1.497490167617797852e+00 -9.139586639404296875e+01 -2.294526863098144531e+01
-2.167948037385940552e-01 -8.730305480957031250e+01 -2.401366806030273438e+01
3.797139227390289307e-01 -9.546596527099609375e+01 -2.198419570922851562e+01
2.446386337280273438e+00 -9.640360260009765625e+01 -1.929678916931152344e+01
1.582514667510986328e+01 -1.015317230224609375e+02 -2.114054489135742188e+01
1.325964355468750000e+01 -9.731976318359375000e+01 -1.954216194152832031e+01
1.270946502685546875e+01 -9.802685546875000000e+01 -1.925639533996582031e+01
1.517639160156250000e+01 -1.024462661743164062e+02 -2.068122482299804688e+01
9.162466049194335938e+00 -9.327017974853515625e+01 -1.693895721435546875e+01
9.546369552612304688e+00 -9.512169647216796875e+01 -1.749689102172851562e+01
6.672811031341552734e+00 -9.592897033691406250e+01 -1.752645492553710938e+01
1.006585597991943359e+01 -1.007613754272460938e+02 -1.939656639099121094e+01
6.172524452209472656e+00 -1.013406448364257812e+02 -2.172554779052734375e+01
9.404306411743164062e+00 -1.046141738891601562e+02 -2.285507583618164062e+01
1.298303031921386719e+01 -1.047079696655273438e+02 -2.074908065795898438e+01
4.245503425598144531e+00 -9.756475067138671875e+01 -1.932731628417968750e+01
1.567028617858886719e+01 -1.045391082763671875e+02 -2.161296081542968750e+01
1.619617652893066406e+01 -1.042784576416015625e+02 -2.211474227905273438e+01
5.174072265625000000e+00 -9.417113494873046875e+01 -1.671369361877441406e+01
1.042269325256347656e+01 -9.019136047363281250e+01 -1.779471206665039062e+01
1.428669452667236328e+01 -9.590088653564453125e+01 -2.065972900390625000e+01
1.648078918457031250e+01 -1.002427597045898438e+02 -2.236488342285156250e+01
1.665137863159179688e+01 -1.032050628662109375e+02 -2.347459983825683594e+01
1.418558979034423828e+01 -9.495417785644531250e+01 -2.282205772399902344e+01
1.604695129394531250e+01 -9.923188781738281250e+01 -2.397047805786132812e+01
1.597336292266845703e+01 -1.018710403442382812e+02 -2.482156944274902344e+01
1.288988208770751953e+01 -9.476436614990234375e+01 -2.487612533569335938e+01
1.457240867614746094e+01 -9.867140197753906250e+01 -2.562883567810058594e+01
7.806063652038574219e+00 -8.657949829101562500e+01 -2.175503158569335938e+01
1.023883628845214844e+01 -8.789255523681640625e+01 -1.964676666259765625e+01
1.491415882110595703e+01 -1.010047454833984375e+02 -2.578582382202148438e+01
1.490873146057128906e+01 -1.062641830444335938e+02 -2.298499107360839844e+01
1.442048072814941406e+01 -1.034545288085937500e+02 -2.585650634765625000e+01
1.442531394958496094e+01 -1.059920883178710938e+02 -2.215305519104003906e+01
4.956299781799316406e+00 -1.007993621826171875e+02 -2.260640716552734375e+01
9.151745796203613281e+00 -1.048240737915039062e+02 -2.460088920593261719e+01
4.479357719421386719e+00 -9.984983825683593750e+01 -2.425918579101562500e+01
8.818776130676269531e+00 -1.040252075195312500e+02 -2.608623123168945312e+01
1.210572624206542969e+01 -1.065323104858398438e+02 -2.464498519897460938e+01
1.205085945129394531e+01 -1.064502334594726562e+02 -2.395280075073242188e+01
6.618096351623535156e+00 -8.415187072753906250e+01 -2.110381507873535156e+01
3.159451484680175781e+00 -8.527783203125000000e+01 -2.365469741821289062e+01
4.654992103576660156e+00 -8.758156585693359375e+01 -2.433264160156250000e+01
1.035091209411621094e+01 -9.588287353515625000e+01 -2.692789077758789062e+01
1.474443674087524414e+00 -8.952586364746093750e+01 -2.477979660034179688e+01
1.231880426406860352e+00 -9.461342620849609375e+01 -2.428901290893554688e+01
5.348221302032470703e+00 -9.875329589843750000e+01 -2.604444503784179688e+01
7.572596549987792969e+00 -9.757295989990234375e+01 -2.722997474670410156e+01
9.097417831420898438e+00 -1.026470108032226562e+02 -2.699064254760742188e+01
9.668783187866210938e+00 -1.008514633178710938e+02 -2.760077476501464844e+01
1.239868927001953125e+01 -9.927716064453125000e+01 -2.730890464782714844e+01
1.142957878112792969e+01 -1.039482803344726562e+02 -2.700488853454589844e+01
1.171187782287597656e+01 -1.053967285156250000e+02 -2.600089073181152344e+01
1.376371288299560547e+01 -1.025905609130859375e+02 -2.656758117675781250e+01
1.157552528381347656e+01 -1.023554077148437500e+02 -2.730812644958496094e+01
1.340521526336669922e+01 -1.016923599243164062e+02 -2.692155838012695312e+01
-8.000819206237792969e+00 -5.271171951293945312e+01 -2.906862449645996094e+01
-2.248427772521972656e+01 -7.498580169677734375e+01 -3.541691589355468750e+01
-2.282606887817382812e+01 -7.539739227294921875e+01 -3.944453811645507812e+01
-2.381814193725585938e+01 -7.266251373291015625e+01 -4.029536819458007812e+01
-2.289587974548339844e+01 -7.144184875488281250e+01 -3.623222732543945312e+01
-3.027883529663085938e+01 -7.363407897949218750e+01 -2.977571487426757812e+01
-2.652967834472656250e+01 -7.461511993408203125e+01 -3.016135787963867188e+01
-2.661087036132812500e+01 -7.006303405761718750e+01 -2.971313858032226562e+01
-3.032688522338867188e+01 -6.871443176269531250e+01 -2.932753944396972656e+01
-3.383819580078125000e+01 -7.432847595214843750e+01 -3.210549926757812500e+01
-3.456238174438476562e+01 -6.953240203857421875e+01 -3.186822509765625000e+01
-3.030028152465820312e+01 -6.535797119140625000e+01 -2.942734336853027344e+01
-2.612476730346679688e+01 -6.639538574218750000e+01 -2.966898155212402344e+01
-2.400035285949707031e+01 -5.040156936645507812e+01 -3.197955703735351562e+01
-2.758967208862304688e+01 -4.793331146240234375e+01 -3.373622894287109375e+01
-3.157242202758789062e+01 -5.337668609619140625e+01 -5.021511840820312500e+01
-2.663393592834472656e+01 -5.621395111083984375e+01 -4.976797866821289062e+01
-2.660926246643066406e+01 -6.054335784912109375e+01 -4.685213088989257812e+01
-3.085861587524414062e+01 -5.905863571166992188e+01 -4.788933181762695312e+01
-2.386744117736816406e+01 -7.488607788085937500e+01 -3.213519287109375000e+01
-2.375367736816406250e+01 -7.102956390380859375e+01 -3.237950897216796875e+01
-3.194795227050781250e+01 -7.039871978759765625e+01 -4.441165542602539062e+01
-2.782283592224121094e+01 -7.048506164550781250e+01 -4.388315582275390625e+01
-2.635365676879882812e+01 -7.329665374755859375e+01 -4.320413970947265625e+01
-3.032381820678710938e+01 -7.414570617675781250e+01 -4.434444046020507812e+01
-2.187910652160644531e+01 -5.783290863037109375e+01 -4.587165069580078125e+01
-1.895537948608398438e+01 -5.729777145385742188e+01 -4.186902999877929688e+01
-2.026638793945312500e+01 -5.793092727661132812e+01 -3.958601760864257812e+01
-2.296874427795410156e+01 -6.067435836791992188e+01 -4.347615051269531250e+01
-1.950744056701660156e+01 -5.496760940551757812e+01 -3.544675445556640625e+01
-3.511711883544921875e+01 -6.974633026123046875e+01 -4.255900955200195312e+01
-3.682375335693359375e+01 -6.767146301269531250e+01 -3.757679367065429688e+01
-3.535535049438476562e+01 -5.176475143432617188e+01 -4.383542251586914062e+01
-3.419274520874023438e+01 -5.508209228515625000e+01 -4.705194854736328125e+01
-2.361918067932128906e+01 -6.801268005371093750e+01 -3.222903442382812500e+01
-2.470443344116210938e+01 -7.002976989746093750e+01 -4.111829376220703125e+01
-2.311894607543945312e+01 -6.902046966552734375e+01 -3.697013092041015625e+01
-3.485118865966796875e+01 -6.597831726074218750e+01 -3.225591278076171875e+01
-3.643297195434570312e+01 -7.197608947753906250e+01 -3.728958129882812500e+01
-2.978473854064941406e+01 -8.482242584228515625e+01 -4.272191619873046875e+01
-3.313355255126953125e+01 -7.706523132324218750e+01 -4.262088012695312500e+01
-2.877696609497070312e+01 -7.711832427978515625e+01 -4.416147613525390625e+01
-2.714399147033691406e+01 -8.445785522460937500e+01 -4.378015518188476562e+01
-3.437329101562500000e+01 -7.358648681640625000e+01 -4.244264984130859375e+01
-3.540758132934570312e+01 -7.641925811767578125e+01 -3.751433563232421875e+01
-2.009206581115722656e+01 -8.314656066894531250e+01 -3.584339523315429688e+01
-2.113771438598632812e+01 -8.280564880371093750e+01 -4.074998474121093750e+01
-2.129408454895019531e+01 -8.324101257324218750e+01 -3.298997116088867188e+01
-3.260867309570312500e+01 -4.809757614135742188e+01 -3.760156631469726562e+01
-2.762050819396972656e+01 -8.379208374023437500e+01 -3.107558250427246094e+01
-2.366431236267089844e+01 -8.391080474853515625e+01 -3.121390914916992188e+01
-2.490830421447753906e+01 -7.626158142089843750e+01 -4.261517715454101562e+01
-2.397535133361816406e+01 -8.338307189941406250e+01 -4.337158203125000000e+01
-3.198046493530273438e+01 -8.496730041503906250e+01 -3.938953399658203125e+01
-3.143272018432617188e+01 -8.405575561523437500e+01 -3.402432250976562500e+01
-3.005802536010742188e+01 -8.899627685546875000e+01 -3.948845672607421875e+01
-2.947297096252441406e+01 -8.784214782714843750e+01 -3.445098876953125000e+01
-2.516102027893066406e+01 -8.776074218750000000e+01 -3.173703956604003906e+01
-2.202019119262695312e+01 -8.668213653564453125e+01 -3.185341835021972656e+01
-1.986678504943847656e+01 -8.595298767089843750e+01 -3.358769226074218750e+01
-2.801586532592773438e+01 -8.842073822021484375e+01 -4.284355926513671875e+01
-2.562301635742187500e+01 -8.752274322509765625e+01 -4.402059555053710938e+01
-2.298401451110839844e+01 -8.550676727294921875e+01 -4.369269180297851562e+01
-2.646806716918945312e+01 -9.253861999511718750e+01 -4.274200057983398438e+01
-2.749891281127929688e+01 -9.441560363769531250e+01 -3.914408111572265625e+01
-1.728497695922851562e+01 -1.005729370117187500e+02 -3.337602615356445312e+01
-1.879535865783691406e+01 -9.692618560791015625e+01 -3.301647949218750000e+01
-1.978822708129882812e+01 -9.741469573974609375e+01 -3.303499221801757812e+01
-1.802378463745117188e+01 -1.010500717163085938e+02 -3.318051528930664062e+01
-2.222975158691406250e+01 -9.285638427734375000e+01 -3.255832672119140625e+01
-2.260189056396484375e+01 -9.435947418212890625e+01 -3.303086090087890625e+01
-2.569045639038085938e+01 -9.413487243652343750e+01 -3.470779418945312500e+01
-2.299530982971191406e+01 -9.901830291748046875e+01 -3.476444244384765625e+01
-2.449933624267578125e+01 -9.993986511230468750e+01 -3.922652053833007812e+01
-2.236192321777343750e+01 -1.033821029663085938e+02 -3.844664382934570312e+01
-2.128669357299804688e+01 -1.025510406494140625e+02 -3.438969039916992188e+01
-2.654211997985839844e+01 -9.596099853515625000e+01 -3.793835067749023438e+01
-1.795298004150390625e+01 -1.036469955444335938e+02 -3.343671417236328125e+01
-1.731908798217773438e+01 -1.040098495483398438e+02 -3.383506011962890625e+01
-2.659196090698242188e+01 -9.241394042968750000e+01 -3.449167633056640625e+01
-1.953250503540039062e+01 -9.052617645263671875e+01 -3.279801559448242188e+01
-1.666876602172851562e+01 -9.656451416015625000e+01 -3.384545898437500000e+01
-1.584325599670410156e+01 -1.011802825927734375e+02 -3.436884307861328125e+01
-1.649898338317871094e+01 -1.038912582397460938e+02 -3.504381561279296875e+01
-1.564638042449951172e+01 -9.501804351806640625e+01 -3.544206237792968750e+01
-1.504921913146972656e+01 -1.003825683593750000e+02 -3.573936080932617188e+01
-1.569790172576904297e+01 -1.027581176757812500e+02 -3.639262771606445312e+01
-1.554956817626953125e+01 -9.387265777587890625e+01 -3.826111602783203125e+01
-1.488477134704589844e+01 -9.931543731689453125e+01 -3.775260543823242188e+01
-1.787478828430175781e+01 -8.746916961669921875e+01 -3.810766220092773438e+01
-1.800303649902343750e+01 -8.891157531738281250e+01 -3.479544067382812500e+01
-1.544474029541015625e+01 -1.018730926513671875e+02 -3.748034667968750000e+01
-1.889966964721679688e+01 -1.058500518798828125e+02 -3.533176803588867188e+01
-1.731479454040527344e+01 -1.049071426391601562e+02 -3.679216384887695312e+01
-1.983010864257812500e+01 -1.053149414062500000e+02 -3.488594436645507812e+01
-2.449706459045410156e+01 -9.935166168212890625e+01 -4.045293045043945312e+01
-2.183993911743164062e+01 -1.034115371704101562e+02 -3.965765762329101562e+01
-2.348000907897949219e+01 -9.824046325683593750e+01 -4.225805664062500000e+01
-2.083202171325683594e+01 -1.028418807983398438e+02 -4.063994598388671875e+01
-2.036488342285156250e+01 -1.050676422119140625e+02 -3.802402877807617188e+01
-2.103045845031738281e+01 -1.049052963256835938e+02 -3.702001953125000000e+01
-1.878128623962402344e+01 -8.556258392333984375e+01 -3.719224929809570312e+01
-2.013413619995117188e+01 -8.481286621093750000e+01 -4.097139739990234375e+01
-1.944228744506835938e+01 -8.687880706787109375e+01 -4.179774093627929688e+01
-1.686942100524902344e+01 -9.364125823974609375e+01 -4.142323303222656250e+01
-2.223783874511718750e+01 -8.787555694580078125e+01 -4.409790039062500000e+01
-2.457583808898925781e+01 -9.040003967285156250e+01 -4.410158920288085938e+01
-2.164330673217773438e+01 -9.684370422363281250e+01 -4.331935882568359375e+01
-1.928599929809570312e+01 -9.522755432128906250e+01 -4.327930068969726562e+01
-1.967186164855957031e+01 -1.019724044799804688e+02 -4.100762176513671875e+01
-1.782841682434082031e+01 -1.002289047241210938e+02 -4.132536697387695312e+01
-1.587691307067871094e+01 -9.905448913574218750e+01 -4.005297470092773438e+01
-1.890191841125488281e+01 -1.039059219360351562e+02 -3.852833938598632812e+01
-1.961079216003417969e+01 -1.047082977294921875e+02 -3.827190780639648438e+01
-1.721412086486816406e+01 -1.034999618530273438e+02 -3.743132400512695312e+01
-1.757519531250000000e+01 -1.024977798461914062e+02 -3.913042449951171875e+01
-1.638430404663085938e+01 -1.021113891601562500e+02 -3.848941040039062500e+01
-3.370045089721679688e+01 -5.232958221435546875e+01 -4.849267959594726562e+01
5.591542816162109375e+01 -6.169935989379882812e+01 -4.043763351440429688e+01
5.153390502929687500e+01 -6.106888961791992188e+01 -3.780234527587890625e+01
4.160250854492187500e+01 -7.458097839355468750e+01 -4.070901489257812500e+01
4.195011901855468750e+01 -6.822746276855468750e+01 -3.570948410034179688e+01
4.568338775634765625e+01 -7.765718078613281250e+01 -4.524485397338867188e+01
5.508732986450195312e+01 -7.410522460937500000e+01 -4.924692535400390625e+01
5.055551147460937500e+01 -7.651590728759765625e+01 -4.875703048706054688e+01
4.646495437622070312e+01 -6.332074737548828125e+01 -3.516478347778320312e+01
5.870142745971679688e+01 -6.436726379394531250e+01 -4.424311065673828125e+01
5.838132476806640625e+01 -6.914881896972656250e+01 -4.806924438476562500e+01
6.042029953002929688e+01 -6.962879943847656250e+01 -3.801908111572265625e+01
6.005515289306640625e+01 -7.449977874755859375e+01 -4.159593582153320312e+01
5.656143188476562500e+01 -7.939037322998046875e+01 -4.258305740356445312e+01
5.105549240112304688e+01 -8.127067565917968750e+01 -4.290081024169921875e+01
4.666817474365234375e+01 -8.101975250244140625e+01 -4.112952041625976562e+01
5.672051239013671875e+01 -6.605495452880859375e+01 -3.475453567504882812e+01
5.197652435302734375e+01 -6.506090545654296875e+01 -3.253434371948242188e+01
4.605793762207031250e+01 -6.659082031250000000e+01 -3.151077842712402344e+01
5.673763275146484375e+01 -6.996116638183593750e+01 -2.802951049804687500e+01
6.055268478393554688e+01 -7.870392608642578125e+01 -2.367303466796875000e+01
5.685514068603515625e+01 -9.556269073486328125e+01 -1.882993316650390625e+01
5.549805831909179688e+01 -9.306862640380859375e+01 -2.502608108520507812e+01
5.825799560546875000e+01 -9.247559356689453125e+01 -2.416847419738769531e+01
5.926217651367187500e+01 -9.522299957275390625e+01 -1.884061813354492188e+01
5.682711791992187500e+01 -8.978491210937500000e+01 -2.960552597045898438e+01
5.842927169799804688e+01 -8.978605651855468750e+01 -2.754716110229492188e+01
6.101200485229492188e+01 -8.554186248779296875e+01 -2.660293579101562500e+01
6.214067459106445312e+01 -8.815916442871093750e+01 -2.164651870727539062e+01
6.129277420043945312e+01 -8.145527648925781250e+01 -2.278915023803710938e+01
6.178974151611328125e+01 -8.231062316894531250e+01 -1.887036132812500000e+01
6.331682205200195312e+01 -9.060224914550781250e+01 -1.719165039062500000e+01
6.115854644775390625e+01 -9.529919433593750000e+01 -1.585011291503906250e+01
6.305009078979492188e+01 -9.208068847656250000e+01 -1.330419349670410156e+01
5.865142059326171875e+01 -9.581512451171875000e+01 -1.502302360534667969e+01
6.084951782226562500e+01 -8.471562957763671875e+01 -2.785008239746093750e+01
5.220970535278320312e+01 -8.767465972900390625e+01 -3.473982238769531250e+01
5.200743484497070312e+01 -9.184603118896484375e+01 -2.625885009765625000e+01
5.379249191284179688e+01 -9.411321258544921875e+01 -1.876216506958007812e+01
5.626354980468750000e+01 -9.440230560302734375e+01 -1.469944763183593750e+01
4.855228805541992188e+01 -8.949616241455078125e+01 -2.559811782836914062e+01
5.108351516723632812e+01 -9.135953521728515625e+01 -1.892374801635742188e+01
5.367773437500000000e+01 -9.157405090332031250e+01 -1.491271972656250000e+01
4.650283813476562500e+01 -8.606900787353515625e+01 -2.438466453552246094e+01
4.976565933227539062e+01 -8.835874938964843750e+01 -1.836520767211914062e+01
4.353173828125000000e+01 -7.969508361816406250e+01 -3.509269332885742188e+01
4.705890655517578125e+01 -8.443146514892578125e+01 -3.641778564453125000e+01
5.239349365234375000e+01 -8.943001556396484375e+01 -1.534623146057128906e+01
6.088017654418945312e+01 -9.190551757812500000e+01 -1.154166603088378906e+01
5.723397064208984375e+01 -9.058300018310546875e+01 -1.065816688537597656e+01
5.992073822021484375e+01 -7.891139984130859375e+01 -1.830571937561035156e+01
6.260257720947265625e+01 -8.494279479980468750e+01 -1.471481323242187500e+01
6.056690216064453125e+01 -8.269206237792968750e+01 -1.378473472595214844e+01
5.693318939208984375e+01 -7.601631927490234375e+01 -1.874984741210937500e+01
5.805562591552734375e+01 -8.137596130371093750e+01 -1.353434944152832031e+01
6.091803741455078125e+01 -8.719203186035156250e+01 -1.102757835388183594e+01
6.314622879028320312e+01 -8.808410644531250000e+01 -1.279294776916503906e+01
4.290461730957031250e+01 -7.763111877441406250e+01 -3.843256378173828125e+01
4.212195968627929688e+01 -7.169178771972656250e+01 -3.454400634765625000e+01
4.302256774902343750e+01 -7.359146118164062500e+01 -3.163527870178222656e+01
4.613525390625000000e+01 -8.132975769042968750e+01 -2.287422561645507812e+01
4.671001434326171875e+01 -6.917150878906250000e+01 -2.828169250488281250e+01
5.251372528076171875e+01 -6.831726074218750000e+01 -2.763296127319335938e+01
5.347663497924804688e+01 -7.540897369384765625e+01 -1.905580902099609375e+01
4.923445510864257812e+01 -7.719248199462890625e+01 -2.038808822631835938e+01
5.497341156005859375e+01 -8.130244445800781250e+01 -1.409136962890625000e+01
5.266182708740234375e+01 -8.216179656982421875e+01 -1.522482490539550781e+01
5.033944702148437500e+01 -8.541310882568359375e+01 -1.682796669006347656e+01
5.610737228393554688e+01 -8.576736450195312500e+01 -1.214129161834716797e+01
5.836091232299804688e+01 -8.612828063964843750e+01 -1.109555339813232422e+01
5.539731597900390625e+01 -8.959681701660156250e+01 -1.248356437683105469e+01
5.402270507812500000e+01 -8.524485778808593750e+01 -1.335133647918701172e+01
5.325793457031250000e+01 -8.774565124511718750e+01 -1.386004066467285156e+01
-2.711846923828125000e+01 -5.379722976684570312e+01 -5.367015838623046875e+01
-2.069854164123535156e+01 -5.585592651367187500e+01 -5.079352188110351562e+01
-2.265209960937500000e+01 -5.339772796630859375e+01 -5.674808883666992188e+01
-2.284526443481445312e+01 -5.086003875732421875e+01 -6.465454101562500000e+01
-2.687872314453125000e+01 -4.570570755004882812e+01 -7.323683166503906250e+01
-1.623912620544433594e+01 -5.094727706909179688e+01 -6.259615325927734375e+01
