2.077544021606445312e+01 -5.642304229736328125e+01 -9.033322906494140625e+01
1.997100448608398438e+01 -6.164224243164062500e+01 -7.162128448486328125e+01
1.744082069396972656e+01 -4.183374023437500000e+01 -1.084307098388671875e+02
1.264441490173339844e+01 -3.685274505615234375e+01 -1.139537582397460938e+02
2.011194992065429688e+01 -3.682544708251953125e+01 -1.140096206665039062e+02
3.978525638580322266e+00 -3.515557098388671875e+01 -1.154287567138671875e+02
-4.069961547851562500e+00 -3.223421478271484375e+01 -1.159944076538085938e+02
-1.154536151885986328e+01 -5.176581382751464844e+00 -1.086063690185546875e+02
2.739029502868652344e+01 -3.605654144287109375e+01 -1.132914886474609375e+02
2.974367332458496094e+01 -6.932984924316406250e+01 -6.378037261962890625e+01
3.055815124511718750e+01 -7.147691345214843750e+01 -5.656236648559570312e+01
2.736837768554687500e+01 -6.749399566650390625e+01 -5.173722457885742188e+01
2.585187149047851562e+01 -6.541519927978515625e+01 -5.750421905517578125e+01
4.365895843505859375e+01 -4.092398834228515625e+01 -2.400963783264160156e+01
4.180852508544921875e+01 -4.724036407470703125e+01 -2.737311363220214844e+01
4.057334136962890625e+01 -4.748497390747070312e+01 -3.483999633789062500e+01
-2.898095607757568359e+00 -4.755977630615234375e+01 -8.969529724121093750e+01
-1.412514305114746094e+01 -4.381890869140625000e+01 -9.375592041015625000e+01
2.733689498901367188e+01 -5.191761016845703125e+01 -2.393613052368164062e+01
4.232427215576171875e+01 -5.601157379150390625e+01 2.530889987945556641e+00
4.390234756469726562e+01 -5.939392089843750000e+01 -8.506463766098022461e-01
4.351207351684570312e+01 -4.815229415893554688e+01 -1.333078765869140625e+01
4.139179611206054688e+01 -4.410029602050781250e+01 -8.773118972778320312e+00
2.601185989379882812e+01 -4.977415847778320312e+01 -1.474382019042968750e+01
2.814327430725097656e+01 -5.196450805664062500e+01 -1.907967185974121094e+01
2.839849472045898438e+01 -5.304663848876953125e+01 -1.618671607971191406e+01
2.622951889038085938e+01 -5.222058868408203125e+01 -1.144706249237060547e+01
-8.632675170898437500e+00 -4.738984680175781250e+01 -2.543704032897949219e+01
-9.466033935546875000e+00 -4.710921096801757812e+01 -3.200239562988281250e+01
2.262185668945312500e+01 -2.679327392578125000e+01 -1.832314491271972656e+01
3.466546249389648438e+01 -2.673070907592773438e+01 -2.061221694946289062e+01
3.489999771118164062e+01 -2.292302322387695312e+01 -3.097367858886718750e+01
2.540429353713989258e+00 -4.306466674804687500e+01 -4.460405349731445312e+01
1.504801154136657715e+00 -4.572208786010742188e+01 -3.550019073486328125e+01
-2.734052658081054688e+00 -4.601829147338867188e+01 -3.643370437622070312e+01
2.095837020874023438e+01 -5.026005935668945312e+01 -2.882057762145996094e+01
2.301094627380371094e+01 -5.097851943969726562e+01 -2.131780624389648438e+01
1.883695602416992188e+01 -4.981189727783203125e+01 -2.412328147888183594e+01
1.677991867065429688e+01 -4.816450881958007812e+01 -3.107854652404785156e+01
-2.523204421997070312e+01 -2.687678146362304688e+01 -7.011037445068359375e+01
-2.708745193481445312e+01 -3.639513397216796875e+01 -7.289208984375000000e+01
4.229744720458984375e+01 -6.939065551757812500e+01 1.425270438194274902e+00
4.235469055175781250e+01 -6.604026794433593750e+01 -1.275178313255310059e+00
3.171469449996948242e+00 -4.204607009887695312e+01 -5.554344558715820312e+01
3.475534820556640625e+01 -2.039323997497558594e+01 -4.474962234497070312e+01
2.762041568756103516e+00 -4.371741485595703125e+01 -6.648807525634765625e+01
-1.774098205566406250e+01 -3.013157653808593750e+01 -2.907310867309570312e+01
-2.173632431030273438e+01 -3.496797943115234375e+01 -2.741051864624023438e+01
-1.982839584350585938e+01 -3.877578735351562500e+01 -2.505570602416992188e+01
-1.845363616943359375e+01 -3.463368988037109375e+01 -2.294615936279296875e+01
2.668845176696777344e+01 -6.096477127075195312e+01 -1.734205782413482666e-01
2.867078590393066406e+01 -6.431840515136718750e+01 -3.116919279098510742e+00
2.914742469787597656e+01 -6.723719787597656250e+01 2.952632009983062744e-01
2.718697547912597656e+01 -6.419317626953125000e+01 3.685172557830810547e+00
3.224916839599609375e+01 -5.268933868408203125e+01 -2.198636817932128906e+01
3.760747528076171875e+01 -5.139028167724609375e+01 -2.358296775817871094e+01
3.715290069580078125e+01 -5.431295013427734375e+01 -1.882384490966796875e+01
3.215604782104492188e+01 -5.468551635742187500e+01 -1.783190536499023438e+01
4.205049896240234375e+01 -4.880713653564453125e+01 -2.138298034667968750e+01
4.178912353515625000e+01 -5.191253662109375000e+01 -1.734860801696777344e+01
2.770689392089843750e+01 -5.699332809448242188e+01 3.301209211349487305e+00
3.250104904174804688e+01 -5.375611495971679688e+01 5.586769580841064453e+00
2.975073623657226562e+01 -4.379753875732421875e+01 -5.466483592987060547e+00
2.619826698303222656e+01 -4.941116333007812500e+01 -6.504355430603027344e+00
-2.557388782501220703e+00 -1.125112438201904297e+01 -7.133088684082031250e+01
-1.179834938049316406e+01 -1.437577533721923828e+01 -7.452722167968750000e+01
-1.410151386260986328e+01 -1.883339691162109375e+01 -6.084259796142578125e+01
-1.683350372314453125e+01 -2.237177658081054688e+01 -4.817875671386718750e+01
-1.873735618591308594e+01 -2.673362350463867188e+01 -3.631922912597656250e+01
-9.693475723266601562e+00 -2.227583885192871094e+01 -3.238719558715820312e+01
-1.995915985107421875e+01 -2.139637374877929688e+01 -6.440766906738281250e+01
2.223100852966308594e+01 -4.010759735107421875e+01 -1.185489368438720703e+01
2.744670104980468750e+01 -3.535662841796875000e+01 -1.313899421691894531e+01
2.171021652221679688e+01 -3.215407180786132812e+01 -1.353474712371826172e+01
-3.129802227020263672e+00 -4.585081100463867188e+01 -6.787040710449218750e+01
4.265395355224609375e+01 -6.241553878784179688e+01 -4.350477218627929688e+00
3.083179092407226562e+01 -8.996601104736328125e+00 -9.585305023193359375e+01
1.959304809570312500e+01 -3.472395420074462891e+00 -9.523883056640625000e+01
2.107059860229492188e+01 -6.356583595275878906e+00 -8.829429626464843750e+01
3.323351287841796875e+01 -1.269063568115234375e+01 -8.887910461425781250e+01
3.351230621337890625e+01 -6.599362945556640625e+01 -6.273744583129882812e+00
3.871991348266601562e+01 -6.528178405761718750e+01 -6.805710792541503906e+00
-1.556108283996582031e+01 -4.745960235595703125e+01 -3.198792648315429688e+01
-1.381300067901611328e+01 -4.647496795654296875e+01 -2.695100975036621094e+01
-1.674203681945800781e+01 -4.501674270629882812e+01 -2.592172241210937500e+01
-2.081214332580566406e+01 -4.800990295410156250e+01 -2.913817787170410156e+01
-1.612506103515625000e+01 -1.619657325744628906e+01 -7.770292663574218750e+01
-3.361991119384765625e+01 -3.788021850585937500e+01 -4.195724105834960938e+01
-2.830296897888183594e+01 -3.087726211547851562e+01 -3.861190032958984375e+01
-9.537046432495117188e+00 -9.773889541625976562e+00 -8.689146423339843750e+01
-1.122996568679809570e+00 -7.450270175933837891e+00 -8.392752838134765625e+01
-5.042032003402709961e-01 -3.881240129470825195e+00 -9.241733551025390625e+01
1.544736027717590332e+00 -2.482136726379394531e+01 -2.181178855895996094e+01
4.555444240570068359e+00 -1.033984947204589844e+01 -6.704223632812500000e+01
5.701208591461181641e+00 -7.111808776855468750e+00 -8.087376403808593750e+01
6.861792564392089844e+00 -3.568953752517700195e+00 -9.104902648925781250e+01
7.028298854827880859e+00 -3.657495677471160889e-01 -9.757788085937500000e+01
-1.106130599975585938e+00 -1.034575223922729492e+00 -9.855516052246093750e+01
3.766904067993164062e+01 -5.415837860107421875e+01 5.246895790100097656e+00
3.319864654541015625e+01 -5.787527465820312500e+01 9.619796752929687500e+00
-1.626096010208129883e+00 5.535346269607543945e-01 -1.057169036865234375e+02
7.050315856933593750e+00 1.809230089187622070e+00 -1.039819946289062500e+02
1.412637615203857422e+01 -7.702636718750000000e+00 -7.805693054199218750e+01
2.412500572204589844e+01 -1.034593868255615234e+01 -7.515011596679687500e+01
1.283567237854003906e+01 -1.029556465148925781e+01 -6.486318969726562500e+01
2.287259292602539062e+01 -1.255875205993652344e+01 -6.115159988403320312e+01
1.124609184265136719e+01 -2.003835105895996094e+01 -2.231052589416503906e+01
3.184054565429687500e+01 -7.237119293212890625e+01 1.754845619201660156e+01
2.962690162658691406e+01 -6.458250427246093750e+01 1.123552417755126953e+01
2.798049354553222656e+01 -6.787577056884765625e+01 7.681013584136962891e+00
2.991548538208007812e+01 -7.499358367919921875e+01 1.544755268096923828e+01
2.848298263549804688e+01 -6.059243011474609375e+01 7.355174064636230469e+00
3.391095733642578125e+01 -6.177985382080078125e+01 1.252994251251220703e+01
3.534439849853515625e+01 -1.855062484741210938e+01 -5.934413909912109375e+01
2.030314254760742188e+01 -4.862470245361328125e+01 -1.710735511779785156e+01
3.723680496215820312e+01 -1.829542922973632812e+01 -7.515342712402343750e+01
4.444414901733398438e+01 -2.954632186889648438e+01 -5.426099395751953125e+01
4.558827209472656250e+01 -3.063690757751464844e+01 -6.596659088134765625e+01
4.017636871337890625e+01 -2.136193275451660156e+01 -9.130036163330078125e+01
4.489820480346679688e+01 -3.027804565429687500e+01 -8.062343597412109375e+01
3.650955963134765625e+01 -1.479255485534667969e+01 -1.044503555297851562e+02
3.778001785278320312e+01 -1.738352012634277344e+01 -9.759172821044921875e+01
4.843652343750000000e+01 -4.171012115478515625e+01 -7.043081665039062500e+01
3.810604095458984375e+01 -7.864447021484375000e+01 7.091925144195556641e+00
3.330710220336914062e+01 -7.854710388183593750e+01 8.037711143493652344e+00
2.999903869628906250e+01 -6.302073001861572266e+00 -1.024628906250000000e+02
2.321772193908691406e+01 -6.416029357910156250e+01 -6.380902099609375000e+01
-5.978952050209045410e-01 -4.666375732421875000e+01 -7.810286712646484375e+01
3.456349849700927734e+00 -4.519676208496093750e+01 -7.638221740722656250e+01
-1.740286254882812500e+01 -4.578282546997070312e+01 -8.496559906005859375e+01
-6.701750278472900391e+00 -4.868525314331054688e+01 -8.118238830566406250e+01
4.227020645141601562e+01 -7.719432830810546875e+01 7.942585945129394531e+00
2.284151554107666016e+00 -4.499222946166992188e+01 -1.369663524627685547e+01
-9.597868919372558594e-01 -4.448154449462890625e+01 -1.486992168426513672e+01
3.761429595947265625e+01 -6.994242095947265625e+01 -6.702802276611328125e+01
3.763613510131835938e+01 -7.257100677490234375e+01 -5.992522048950195312e+01
4.772099685668945312e+01 -6.648004913330078125e+01 -5.641156005859375000e+01
4.381332778930664062e+01 -7.063825988769531250e+01 -5.882715988159179688e+01
4.483454513549804688e+01 -6.626130676269531250e+01 -6.690553283691406250e+01
4.892115783691406250e+01 -6.088746261596679688e+01 -6.462504577636718750e+01
5.061342716217041016e+00 -4.648621749877929688e+01 -8.668998718261718750e+01
2.166639804840087891e+00 -4.692253875732421875e+01 -8.715547943115234375e+01
-2.302066040039062500e+01 -2.449672508239746094e+01 -8.244593811035156250e+01
-2.417805099487304688e+01 -3.509426116943359375e+01 -8.425717926025390625e+01
4.340682983398437500e+01 -4.383465576171875000e+01 -1.811362838745117188e+01
4.111445236206054688e+01 -3.360883331298828125e+01 -2.075340652465820312e+01
4.071303558349609375e+01 -3.846466064453125000e+01 -1.435104846954345703e+01
3.578796768188476562e+01 -4.107667160034179688e+01 -6.899323940277099609e+00
2.140256118774414062e+01 -4.545859909057617188e+01 -1.303430461883544922e+01
2.503313636779785156e+01 -4.489043426513671875e+01 -1.183807659149169922e+01
1.616810417175292969e+01 -5.166037750244140625e+01 -9.421153259277343750e+01
1.158670139312744141e+01 -4.994328689575195312e+01 -8.276972961425781250e+01
2.688703346252441406e+01 -6.226485061645507812e+01 -5.137017059326171875e+01
3.052797317504882812e+01 -6.172888183593750000e+01 -4.605506515502929688e+01
1.051969432830810547e+01 -4.591306686401367188e+01 -3.431696319580078125e+01
4.089491844177246094e+00 -3.098531532287597656e+01 -1.300731468200683594e+01
1.188617897033691406e+01 -2.656310462951660156e+01 -1.288372516632080078e+01
1.141682243347167969e+01 -4.806543350219726562e+01 -2.575972938537597656e+01
4.403223800659179688e+01 -7.291498565673828125e+01 1.353958702087402344e+01
4.412638092041015625e+01 -7.558496093750000000e+01 1.014180183410644531e+01
3.498049163818359375e+01 -3.488295745849609375e+01 -1.289696788787841797e+01
-1.012567710876464844e+01 -4.752173233032226562e+01 -3.919863128662109375e+01
-2.202544927597045898e+00 -2.926359176635742188e+01 -1.844796752929687500e+01
3.137543201446533203e+00 -3.799940109252929688e+01 -1.246418857574462891e+01
-3.185684585571289062e+01 -4.478798294067382812e+01 -4.510851287841796875e+01
1.940233421325683594e+01 -7.938774824142456055e-01 -1.022703628540039062e+02
2.947685623168945312e+01 -7.095988464355468750e+01 4.337926387786865234e+00
3.021355056762695312e+01 -7.724431610107421875e+01 1.054199790954589844e+01
3.525245666503906250e+01 -7.014784240722656250e+01 1.804816627502441406e+01
4.052094268798828125e+01 -6.965689849853515625e+01 1.650039672851562500e+01
-2.042217063903808594e+01 -3.456167221069335938e+01 -9.469309997558593750e+01
5.702700614929199219e+00 -4.478565216064453125e+01 -7.476489257812500000e+01
4.949702453613281250e+01 -5.127719879150390625e+01 -6.307963180541992188e+01
4.873334503173828125e+01 -6.086499786376953125e+01 -5.411397171020507812e+01
1.194422245025634766e+01 -4.828920745849609375e+01 -1.915430068969726562e+01
-2.299494171142578125e+01 -3.111774635314941406e+01 -3.277787017822265625e+01
-1.141501617431640625e+01 -2.683771133422851562e+01 -2.456032943725585938e+01
-1.328336334228515625e+01 -3.116526794433593750e+01 -1.813239097595214844e+01
-7.517808437347412109e+00 -3.319780349731445312e+01 -1.392694664001464844e+01
-3.607839107513427734e+00 -3.914008712768554688e+01 -1.131766223907470703e+01
3.530646896362304688e+01 -7.427336883544921875e+01 2.063993263244628906e+01
4.056894302368164062e+01 -7.360497283935546875e+01 1.935977172851562500e+01
4.425025177001953125e+01 -7.679413604736328125e+01 1.695143508911132812e+01
4.463239288330078125e+01 -7.913765716552734375e+01 1.387606525421142578e+01
4.244904327392578125e+01 -8.022055053710937500e+01 1.058156776428222656e+01
3.202616119384765625e+01 -7.669274902343750000e+01 2.021033859252929688e+01
3.044298171997070312e+01 -7.921833038330078125e+01 1.824778175354003906e+01
3.067675399780273438e+01 -8.024491882324218750e+01 1.297826576232910156e+01
3.212638473510742188e+01 -8.106045532226562500e+01 2.273229789733886719e+01
3.601771163940429688e+01 -8.129913330078125000e+01 2.529961395263671875e+01
4.492154693603515625e+01 -8.921427154541015625e+01 2.384202766418457031e+01
4.466947555541992188e+01 -8.370506286621093750e+01 2.240797424316406250e+01
4.383256149291992188e+01 -8.510536956787109375e+01 2.449650382995605469e+01
4.390011596679687500e+01 -8.966002655029296875e+01 2.661393356323242188e+01
4.296067047119140625e+01 -9.341554260253906250e+01 2.915558242797851562e+01
4.385144805908203125e+01 -9.343055725097656250e+01 2.669225120544433594e+01
4.104896163940429688e+01 -8.207184600830078125e+01 2.496510505676269531e+01
4.090648269653320312e+01 -8.794200134277343750e+01 2.819161415100097656e+01
3.707651519775390625e+01 -8.776827239990234375e+01 2.869378662109375000e+01
3.751111984252929688e+01 -9.218217468261718750e+01 3.115143394470214844e+01
4.057654571533203125e+01 -9.231297302246093750e+01 3.085203933715820312e+01
3.751647186279296875e+01 -8.361698913574218750e+01 2.658107566833496094e+01
4.091017532348632812e+01 -8.003068542480468750e+01 2.380775451660156250e+01
4.204583358764648438e+01 -9.592608642578125000e+01 2.920086288452148438e+01
4.191391754150390625e+01 -9.491114807128906250e+01 3.036095809936523438e+01
3.992581939697265625e+01 -9.439418029785156250e+01 3.165050888061523438e+01
3.870762634277343750e+01 -9.638387298583984375e+01 3.135924148559570312e+01
4.508008956909179688e+01 -8.314372253417968750e+01 1.697099304199218750e+01
4.465918731689453125e+01 -8.990710449218750000e+01 2.190711593627929688e+01
4.313554382324218750e+01 -9.435041809082031250e+01 2.498606491088867188e+01
4.122585296630859375e+01 -9.660401153564453125e+01 2.800040245056152344e+01
4.260080718994140625e+01 -9.169915008544921875e+01 2.040515708923339844e+01
4.147914886474609375e+01 -9.490187072753906250e+01 2.370794296264648438e+01
3.968266677856445312e+01 -9.660716247558593750e+01 2.643851661682128906e+01
3.930928802490234375e+01 -9.277116394042968750e+01 1.984128189086914062e+01
3.889031219482421875e+01 -9.528599548339843750e+01 2.321809196472167969e+01
3.942830276489257812e+01 -8.350512695312500000e+01 1.161130332946777344e+01
4.283072280883789062e+01 -8.266477203369140625e+01 1.281751441955566406e+01
3.854776763916015625e+01 -9.638635253906250000e+01 2.540574836730957031e+01
3.756153106689453125e+01 -9.710704040527343750e+01 3.060915756225585938e+01
3.402186203002929688e+01 -8.681190490722656250e+01 2.721812438964843750e+01
3.499781036376953125e+01 -9.279113769531250000e+01 3.029167556762695312e+01
3.236428833007812500e+01 -8.744599914550781250e+01 2.589418601989746094e+01
3.370696640014648438e+01 -9.332090759277343750e+01 2.898279380798339844e+01
3.607214355468750000e+01 -9.549076843261718750e+01 3.152583312988281250e+01
3.763713836669921875e+01 -9.429155731201171875e+01 3.190813827514648438e+01
3.824218750000000000e+01 -8.056065368652343750e+01 8.892450332641601562e+00
3.319031524658203125e+01 -8.063609313964843750e+01 9.908781051635742188e+00
3.412503814697265625e+01 -8.353137969970703125e+01 1.197200298309326172e+01
3.534921264648437500e+01 -9.259513854980468750e+01 2.030057525634765625e+01
3.124630355834960938e+01 -8.338938903808593750e+01 1.494569683074951172e+01
3.068253707885742188e+01 -8.349481201171875000e+01 2.050067329406738281e+01
3.157743835449218750e+01 -8.943400573730468750e+01 2.443270874023437500e+01
3.218998718261718750e+01 -9.108271789550781250e+01 2.226882362365722656e+01
3.306260299682617188e+01 -9.376979064941406250e+01 2.705722618103027344e+01
3.364756774902343750e+01 -9.435175323486328125e+01 2.521143150329589844e+01
3.599159240722656250e+01 -9.519853210449218750e+01 2.378825569152832031e+01
3.484391403198242188e+01 -9.622920989990234375e+01 2.873656272888183594e+01
3.519141387939453125e+01 -9.609624481201171875e+01 3.067808532714843750e+01
3.728812789916992188e+01 -9.713657379150390625e+01 2.859597206115722656e+01
3.489187622070312500e+01 -9.601107788085937500e+01 2.707723045349121094e+01
3.686075210571289062e+01 -9.666242218017578125e+01 2.657880210876464844e+01
1.502623558044433594e+01 -6.328709793090820312e+01 1.380518531799316406e+01
8.973058700561523438e+00 -6.484407806396484375e+01 1.232088184356689453e+01
1.039344406127929688e+01 -6.161359405517578125e+01 8.862989425659179688e+00
1.549531555175781250e+01 -6.024153518676757812e+01 1.049045372009277344e+01
1.459428596496582031e+01 -5.407207107543945312e+01 2.188781356811523438e+01
1.753904342651367188e+01 -5.754372406005859375e+01 1.915114974975585938e+01
1.801094627380371094e+01 -5.396507644653320312e+01 1.669847488403320312e+01
1.448338508605957031e+01 -4.985363006591796875e+01 1.919588851928710938e+01
9.412426948547363281e+00 -5.217534637451171875e+01 2.255440330505371094e+01
9.137489318847656250e+00 -4.781957244873046875e+01 1.903579902648925781e+01
1.510530090332031250e+01 -4.640164947509765625e+01 1.553389167785644531e+01
1.866326522827148438e+01 -5.059490585327148438e+01 1.293838310241699219e+01
2.047484207153320312e+01 -4.135898971557617188e+01 -5.945878028869628906e+00
1.775037574768066406e+01 -3.551679229736328125e+01 -3.430841922760009766e+00
6.852934360504150391e+00 -4.810572814941406250e+01 -1.128106403350830078e+01
4.633697509765625000e+00 -4.693392944335937500e+01 -9.286031723022460938e+00
1.729588890075683594e+01 -6.086856079101562500e+01 1.620708084106445312e+01
1.805418586730957031e+01 -5.744576263427734375e+01 1.363759040832519531e+01
2.915381908416748047e+00 -5.627256011962890625e+01 6.964736938476562500e+00
6.955252647399902344e+00 -5.882646560668945312e+01 5.382047176361083984e+00
5.598865985870361328e+00 -6.090471649169921875e+01 9.215385437011718750e+00
1.654566764831542969e+00 -5.792894744873046875e+01 1.130552101135253906e+01
1.745832252502441406e+01 -4.732814407348632812e+01 -1.102045249938964844e+01
1.215094566345214844e+01 -4.880902099609375000e+01 -1.199323463439941406e+01
1.959313392639160156e+01 -4.533959197998046875e+01 -8.560552597045898438e+00
1.091124296188354492e+00 -5.182569503784179688e+01 1.034963798522949219e+01
2.780671358108520508e+00 -4.701148223876953125e+01 1.374483299255371094e+01
4.457870483398437500e+00 -3.607326507568359375e+01 -3.346655607223510742e+00
1.961224317550659180e+00 -4.175102996826171875e+01 -5.469354629516601562e+00
1.864585494995117188e+01 -5.464404296875000000e+01 9.886633872985839844e+00
1.208771228790283203e+01 -5.958684539794921875e+01 5.333367347717285156e+00
1.623153305053710938e+01 -5.816771697998046875e+01 6.753201961517333984e+00
8.845845222473144531e+00 -4.451074600219726562e+01 1.540604877471923828e+01
3.047137975692749023e+00 -5.037141036987304688e+01 1.779256057739257812e+01
1.006676405668258667e-01 -6.584776306152343750e+01 2.579236984252929688e+01
6.469561457633972168e-01 -5.739822387695312500e+01 1.797520065307617188e+01
1.079961538314819336e+00 -6.096413421630859375e+01 1.498614692687988281e+01
-2.650163471698760986e-01 -6.939598083496093750e+01 2.319137001037597656e+01
8.292452692985534668e-01 -5.425218582153320312e+01 1.475533103942871094e+01
3.357758998870849609e+00 -5.379564666748046875e+01 2.094759941101074219e+01
1.134110927581787109e+01 -7.429789733886718750e+01 2.163138961791992188e+01
5.615210056304931641e+00 -7.450655364990234375e+01 2.024805068969726562e+01
1.436146068572998047e+01 -7.237004852294921875e+01 2.414640235900878906e+01
1.083408641815185547e+01 -3.303639984130859375e+01 -2.455523967742919922e+00
1.348204994201660156e+01 -6.454832458496093750e+01 2.878040122985839844e+01
1.538541412353515625e+01 -6.923146057128906250e+01 2.626298141479492188e+01
4.131551742553710938e+00 -6.383306884765625000e+01 1.269203186035156250e+01
1.506374597549438477e+00 -7.269486236572265625e+01 2.126186752319335938e+01
2.592423915863037109e+00 -6.335294723510742188e+01 2.794975852966308594e+01
8.435170173645019531e+00 -6.137289428710937500e+01 2.916878318786621094e+01
2.419245481491088867e+00 -6.774253082275390625e+01 3.107429122924804688e+01
7.836306571960449219e+00 -6.659568023681640625e+01 3.236944580078125000e+01
1.306580924987792969e+01 -6.965939331054687500e+01 3.156752967834472656e+01
1.465062141418457031e+01 -7.324076843261718750e+01 2.862302780151367188e+01
1.362644481658935547e+01 -7.547370910644531250e+01 2.580901145935058594e+01
-2.536012232303619385e-01 -7.013323974609375000e+01 2.915828895568847656e+01
-9.317957162857055664e-01 -7.319148254394531250e+01 2.638260841369628906e+01
1.350363254547119141e+00 -7.512523651123046875e+01 2.277373313903808594e+01
-9.021816253662109375e-01 -7.618775177001953125e+01 3.171611976623535156e+01
1.594813346862792969e+00 -7.521674346923828125e+01 3.464532089233398438e+01
1.073448276519775391e+01 -8.851887512207031250e+01 3.730004882812500000e+01
1.204407024383544922e+01 -8.339091491699218750e+01 3.586821746826171875e+01
1.028748035430908203e+01 -8.291847991943359375e+01 3.739949417114257812e+01
9.476407051086425781e+00 -8.769903564453125000e+01 3.900894927978515625e+01
1.176619529724121094e+01 -7.746348571777343750e+01 3.538281631469726562e+01
1.002872562408447266e+01 -7.869117736816406250e+01 3.662590789794921875e+01
6.403430938720703125e+00 -7.657203674316406250e+01 3.677901840209960938e+01
6.004746913909912109e+00 -8.210429382324218750e+01 3.834547424316406250e+01
1.586902737617492676e+00 -8.147393798828125000e+01 3.690907669067382812e+01
1.157396554946899414e+00 -8.637046813964843750e+01 3.890998458862304688e+01
5.159852504730224609e+00 -8.703622436523437500e+01 4.056581878662109375e+01
3.008450269699096680e+00 -7.754996490478515625e+01 3.638840484619140625e+01
8.077360153198242188e+00 -9.034781646728515625e+01 3.994074630737304688e+01
7.976608276367187500e+00 -9.230771636962890625e+01 3.899498748779296875e+01
6.962196350097656250e+00 -7.384030914306640625e+01 3.585020065307617188e+01
1.407346343994140625e+01 -7.666255950927734375e+01 3.106523704528808594e+01
1.258833122253417969e+01 -8.463227844238281250e+01 3.362955856323242188e+01
1.039903259277343750e+01 -9.001301574707031250e+01 3.532585906982421875e+01
6.838265895843505859e+00 -9.397959136962890625e+01 3.727784347534179688e+01
1.110435962677001953e+01 -8.650838470458984375e+01 3.086349868774414062e+01
9.100819587707519531e+00 -9.104118347167968750e+01 3.342390060424804688e+01
6.027413845062255859e+00 -9.377140045166015625e+01 3.532658004760742188e+01
7.916694641113281250e+00 -8.752036285400390625e+01 2.841117858886718750e+01
6.309542655944824219e+00 -9.159331512451171875e+01 3.151941490173339844e+01
9.817781448364257812e+00 -7.871531677246093750e+01 2.405688858032226562e+01
1.312706279754638672e+01 -7.808103942871093750e+01 2.703728866577148438e+01
5.335799217224121094e+00 -9.308647918701171875e+01 3.357652664184570312e+01
4.309329986572265625e+00 -9.375112915039062500e+01 3.989118576049804688e+01
3.874981641769409180e+00 -9.567122650146484375e+01 3.718315887451171875e+01
4.875735282897949219e+00 -9.094453430175781250e+01 4.095591354370117188e+01
-2.251626923680305481e-02 -8.170655822753906250e+01 3.560230255126953125e+01
-2.752557694911956787e-01 -8.738409423828125000e+01 3.747957229614257812e+01
-1.254626750946044922e+00 -8.256669616699218750e+01 3.365125274658203125e+01
-9.623908996582031250e-01 -8.885585784912109375e+01 3.593605041503906250e+01
6.931852102279663086e-01 -9.137254333496093750e+01 3.828388214111328125e+01
1.310161352157592773e+00 -9.076819610595703125e+01 3.953736114501953125e+01
1.045979499816894531e+01 -7.648229217529296875e+01 2.292813491821289062e+01
5.194899082183837891e+00 -7.631451416015625000e+01 2.162974929809570312e+01
4.929006099700927734e+00 -7.823525238037109375e+01 2.283149528503417969e+01
3.647601604461669922e+00 -8.688577270507812500e+01 2.746574020385742188e+01
9.315617680549621582e-01 -7.716461944580078125e+01 2.424319458007812500e+01
-1.275162220001220703e+00 -7.726164245605468750e+01 2.850487709045410156e+01
-1.408450722694396973e+00 -8.331562042236328125e+01 3.135029220581054688e+01
1.858784407377243042e-01 -8.538967132568359375e+01 2.896025085449218750e+01
-1.060135483741760254e+00 -8.926240539550781250e+01 3.433280944824218750e+01
-1.685448437929153442e-01 -8.925050354003906250e+01 3.171374511718750000e+01
3.083783388137817383e+00 -9.072725677490234375e+01 3.057083702087402344e+01
6.340528726577758789e-01 -9.136186218261718750e+01 3.563990402221679688e+01
7.171210050582885742e-01 -9.122077941894531250e+01 3.702866363525390625e+01
3.576653957366943359e+00 -9.423846435546875000e+01 3.501124954223632812e+01
6.213887333869934082e-01 -9.178529357910156250e+01 3.380965805053710938e+01
3.177078247070312500e+00 -9.319687652587890625e+01 3.367833709716796875e+01
-1.161359882354736328e+01 -6.284317016601562500e+01 -6.800279617309570312e-01
-1.496331214904785156e+01 -6.383620452880859375e+01 -5.097518920898437500e+00
-1.392996978759765625e+01 -6.076958084106445312e+01 -6.960310459136962891e+00
-1.004953002929687500e+01 -5.877198028564453125e+01 -2.243639469146728516e+00
-1.731842041015625000e+01 -5.677773284912109375e+01 6.553115844726562500e+00
-1.378149986267089844e+01 -5.897547531127929688e+01 5.838396549224853516e+00
-1.250808238983154297e+01 -5.528652191162109375e+01 4.616309165954589844e+00
-1.577190971374511719e+01 -5.172954177856445312e+01 4.984791755676269531e+00
-2.190423583984375000e+01 -5.782100296020507812e+01 5.589292049407958984e+00
-2.046661949157714844e+01 -5.033055496215820312e+01 3.271480083465576172e+00
-1.418327045440673828e+01 -4.709441375732421875e+01 1.947574973106384277e+00
-1.113949012756347656e+01 -5.163292312622070312e+01 2.754780292510986328e+00
-5.145633220672607422e+00 -4.198839950561523438e+01 -8.710499763488769531e+00
-9.611330032348632812e+00 -3.750752639770507812e+01 -8.415390014648437500e+00
-1.167288780212402344e+01 -6.092690277099609375e+01 3.114619493484497070e+00
-1.054229545593261719e+01 -5.758255767822265625e+01 1.951779365539550781e+00
-2.085769653320312500e+01 -5.620497894287109375e+01 -1.055110836029052734e+01
-1.707555580139160156e+01 -5.776393890380859375e+01 -1.095409202575683594e+01
-1.884443473815917969e+01 -6.001615142822265625e+01 -8.658189773559570312e+00
-2.233525848388671875e+01 -5.853743743896484375e+01 -7.839190006256103516e+00
-4.869249820709228516e+00 -4.782564163208007812e+01 -1.655814933776855469e+01
-9.187234878540039062e+00 -4.839817047119140625e+01 -2.075838088989257812e+01
-4.354932308197021484e+00 -4.601888275146484375e+01 -1.216025543212890625e+01
-2.409777259826660156e+01 -5.315449142456054688e+01 -7.460021018981933594e+00
-2.372223472595214844e+01 -4.813190078735351562e+01 -4.137709140777587891e+00
-2.026841735839843750e+01 -3.978330612182617188e+01 -1.563627052307128906e+01
-1.961968994140625000e+01 -4.363967895507812500e+01 -1.894179725646972656e+01
-9.525773048400878906e+00 -5.470825195312500000e+01 3.957600593566894531e-01
-1.255760478973388672e+01 -5.829688262939453125e+01 -9.055192947387695312e+00
-9.311141967773437500e+00 -5.681189727783203125e+01 -4.203266620635986328e+00
-1.908043098449707031e+01 -4.548802947998046875e+01 -1.384809315204620361e-01
-2.466271018981933594e+01 -5.257396316528320312e+01 -5.265157222747802734e-01
-2.684072875976562500e+01 -7.460829925537109375e+01 1.976691603660583496e+00
-2.557750320434570312e+01 -5.955652999877929688e+01 -2.881689071655273438e+00
-2.289550590515136719e+01 -6.202719879150390625e+01 -5.902475833892822266e+00
-2.532509994506835938e+01 -7.598085021972656250e+01 -6.177408099174499512e-01
-2.517758560180664062e+01 -5.636656951904296875e+01 -4.603753566741943359e+00
-2.528532028198242188e+01 -5.784043121337890625e+01 1.582355260848999023e+00
-1.440662384033203125e+01 -7.607359313964843750e+01 2.146263122558593750e+00
-1.765559768676757812e+01 -7.638124084472656250e+01 -1.156611800193786621e+00
-1.395691394805908203e+01 -7.445385742187500000e+01 5.202965259552001953e+00
-1.570080566406250000e+01 -3.598521041870117188e+01 -1.122729873657226562e+01
-1.541924095153808594e+01 -4.671758270263671875e+01 -2.166366195678710938e+01
-1.792911148071289062e+01 -7.272591400146484375e+01 9.288024902343750000e+00
-1.506349182128906250e+01 -7.359899902343750000e+01 7.553119659423828125e+00
-1.957962417602539062e+01 -6.311986160278320312e+01 -6.625065803527832031e+00
-2.215193748474121094e+01 -7.648178863525390625e+01 -2.006114244461059570e+00
-2.633325195312500000e+01 -7.247617340087890625e+01 5.171387672424316406e+00
-2.274885177612304688e+01 -7.123707580566406250e+01 8.507340431213378906e+00
-2.647189331054687500e+01 -7.764656066894531250e+01 5.803175449371337891e+00
-2.294878196716308594e+01 -7.632243347167968750e+01 9.106412887573242188e+00
-1.817428207397460938e+01 -7.763301086425781250e+01 9.927731513977050781e+00
-1.527172088623046875e+01 -7.823129272460937500e+01 8.084375381469726562e+00
-1.414390277862548828e+01 -7.867066955566406250e+01 5.522158622741699219e+00
-2.692154312133789062e+01 -7.967567443847656250e+01 2.865914106369018555e+00
-2.549834060668945312e+01 -8.070097351074218750e+01 3.505591452121734619e-01
-2.212473678588867188e+01 -7.877583312988281250e+01 -1.622926354408264160e+00
-2.648880386352539062e+01 -8.411555480957031250e+01 3.150628328323364258e+00
-2.584281921386718750e+01 -8.466618347167968750e+01 6.850759983062744141e+00
-1.671889877319335938e+01 -9.580183410644531250e+01 1.047993373870849609e+01
-1.684794425964355469e+01 -9.065976715087890625e+01 1.024836158752441406e+01
-1.780488777160644531e+01 -9.085017395019531250e+01 1.058673000335693359e+01
-1.792803573608398438e+01 -9.606143951416015625e+01 1.101228427886962891e+01
-1.851840591430664062e+01 -8.450719451904296875e+01 1.049667644500732422e+01
-1.919164657592773438e+01 -8.638632965087890625e+01 1.065334224700927734e+01
-2.227962684631347656e+01 -8.561526489257812500e+01 9.931318283081054688e+00
-2.189860916137695312e+01 -9.178446960449218750e+01 1.033698081970214844e+01
-2.532518005371093750e+01 -9.125418090820312500e+01 6.888041496276855469e+00
-2.425830841064453125e+01 -9.591430664062500000e+01 7.642567634582519531e+00
-2.130024337768554688e+01 -9.686549377441406250e+01 1.088063526153564453e+01
-2.506332778930664062e+01 -8.645347595214843750e+01 7.730684757232666016e+00
-1.845829772949218750e+01 -9.834761047363281250e+01 1.079053783416748047e+01
-1.755904769897460938e+01 -9.840074157714843750e+01 1.017192840576171875e+01
-2.263805961608886719e+01 -8.314253234863281250e+01 9.730702400207519531e+00
-1.549343872070312500e+01 -8.309241485595703125e+01 8.860577583312988281e+00
-1.499705219268798828e+01 -9.041448974609375000e+01 8.928256988525390625e+00
-1.518359375000000000e+01 -9.548445129394531250e+01 8.978981971740722656e+00
-1.611789512634277344e+01 -9.806938171386718750e+01 8.313580513000488281e+00
-1.439578437805175781e+01 -9.035829925537109375e+01 6.295943260192871094e+00
-1.485762977600097656e+01 -9.506117248535156250e+01 6.852915763854980469e+00
-1.612821960449218750e+01 -9.764366912841796875e+01 6.678900718688964844e+00
-1.525892639160156250e+01 -9.034012603759765625e+01 3.743433475494384766e+00
-1.572838115692138672e+01 -9.452940368652343750e+01 4.567409515380859375e+00
-1.482082939147949219e+01 -8.070495605468750000e+01 2.639363527297973633e+00
-1.419267082214355469e+01 -8.201824951171875000e+01 5.946480751037597656e+00
-1.662265586853027344e+01 -9.692658996582031250e+01 5.262028694152832031e+00
-1.981653404235839844e+01 -1.000602035522460938e+02 9.659643173217773438e+00
-1.864475631713867188e+01 -9.994247436523437500e+01 6.383538246154785156e+00
-2.041453552246093750e+01 -9.929112243652343750e+01 1.039607810974121094e+01
-2.590071487426757812e+01 -9.061091613769531250e+01 5.441224098205566406e+00
-2.442511940002441406e+01 -9.667292022705078125e+01 5.922184944152832031e+00
-2.545354652404785156e+01 -9.031179046630859375e+01 3.307265043258666992e+00
-2.406731033325195312e+01 -9.639822387695312500e+01 4.019643306732177734e+00
-2.275561523437500000e+01 -9.983996582031250000e+01 7.456620216369628906e+00
-2.280354499816894531e+01 -9.934858703613281250e+01 8.085619926452636719e+00
-1.471727943420410156e+01 -7.818768310546875000e+01 2.153252363204956055e+00
-1.824603462219238281e+01 -7.877118682861328125e+01 -8.463609814643859863e-01
-1.812131690979003906e+01 -8.136277008056640625e+01 -3.683815598487854004e-01
-1.781185913085937500e+01 -9.081645202636718750e+01 1.283061265945434570e+00
-2.182385635375976562e+01 -8.143906402587890625e+01 -1.208035826683044434e+00
-2.491989517211914062e+01 -8.483656311035156250e+01 7.700342535972595215e-01
-2.377509689331054688e+01 -9.052745819091796875e+01 1.437808394432067871e+00
-2.104960250854492188e+01 -9.101667785644531250e+01 6.254647374153137207e-01
-2.277886581420898438e+01 -9.576658630371093750e+01 2.731804132461547852e+00
-2.107082748413085938e+01 -9.478848266601562500e+01 1.783591628074645996e+00
-1.776944160461425781e+01 -9.466792297363281250e+01 2.440540075302124023e+00
-2.150087165832519531e+01 -9.848225402832031250e+01 3.946118831634521484e+00
-2.230465698242187500e+01 -9.944532775878906250e+01 5.594902038574218750e+00
-1.867880821228027344e+01 -9.895642089843750000e+01 5.127250671386718750e+00
-2.030610656738281250e+01 -9.707867431640625000e+01 3.131454467773437500e+00
-1.830557632446289062e+01 -9.747868347167968750e+01 4.016034126281738281e+00
-1.258242321014404297e+01 -4.749409484863281250e+01 -2.225782394409179688e+01
-3.696796798706054688e+01 -5.328069305419921875e+01 -1.186822891235351562e+01
-3.833034133911132812e+01 -5.551945877075195312e+01 -1.458446025848388672e+01
-3.812496948242187500e+01 -5.381531524658203125e+01 -1.729512405395507812e+01
-3.579899215698242188e+01 -5.168892669677734375e+01 -1.488053894042968750e+01
-4.111442565917968750e+01 -4.492922973632812500e+01 -9.470036506652832031e+00
-3.849648284912109375e+01 -4.798631668090820312e+01 -8.769655227661132812e+00
-3.617037200927734375e+01 -4.522830581665039062e+01 -1.130873966217041016e+01
-3.876730346679687500e+01 -4.191132354736328125e+01 -1.223455429077148438e+01
-4.513942718505859375e+01 -4.471954345703125000e+01 -1.140960121154785156e+01
-4.349845123291015625e+01 -4.150382232666015625e+01 -1.447678089141845703e+01
-3.719417572021484375e+01 -4.024785232543945312e+01 -1.441379261016845703e+01
-3.405352020263671875e+01 -4.370497894287109375e+01 -1.360286426544189453e+01
-2.545161056518554688e+01 -3.832047653198242188e+01 -2.416038894653320312e+01
-2.777233886718750000e+01 -3.477718353271484375e+01 -2.694573974609375000e+01
-3.308249282836914062e+01 -4.570960235595703125e+01 -4.000326156616210938e+01
-2.935536575317382812e+01 -4.909735107421875000e+01 -3.890530014038085938e+01
-3.300870513916015625e+01 -4.946365737915039062e+01 -3.230657196044921875e+01
-3.561316299438476562e+01 -4.707595062255859375e+01 -3.408228302001953125e+01
-3.711470794677734375e+01 -5.072486114501953125e+01 -9.780023574829101562e+00
-3.508728790283203125e+01 -4.901689910888671875e+01 -1.241645336151123047e+01
-4.328667449951171875e+01 -5.078391265869140625e+01 -2.336182594299316406e+01
-4.029042053222656250e+01 -5.266888427734375000e+01 -2.226099967956542969e+01
-4.075776290893554688e+01 -5.457094573974609375e+01 -1.944219207763671875e+01
-4.427450561523437500e+01 -5.367926788330078125e+01 -2.035255050659179688e+01
-2.603273391723632812e+01 -5.034423065185546875e+01 -3.522194671630859375e+01
-2.284895896911621094e+01 -5.028092193603515625e+01 -3.272846603393554688e+01
-2.543541336059570312e+01 -4.919823074340820312e+01 -2.888100814819335938e+01
-3.003094100952148438e+01 -5.003860092163085938e+01 -2.968463706970214844e+01
-2.353445243835449219e+01 -4.646931838989257812e+01 -2.613661193847656250e+01
-4.523505401611328125e+01 -4.786631774902343750e+01 -2.289300155639648438e+01
-4.519549179077148438e+01 -4.297383880615234375e+01 -2.071071243286132812e+01
-3.675789260864257812e+01 -3.876746749877929688e+01 -3.499251937866210938e+01
-3.668914031982421875e+01 -4.310662460327148438e+01 -3.596247482299804688e+01
-3.340706634521484375e+01 -4.762315750122070312e+01 -1.442428398132324219e+01
-3.745994186401367188e+01 -5.265131378173828125e+01 -1.995667457580566406e+01
-3.479618453979492188e+01 -5.095891189575195312e+01 -1.721216201782226562e+01
-4.209396743774414062e+01 -3.970097732543945312e+01 -1.715975570678710938e+01
-4.711922454833984375e+01 -4.526644515991210938e+01 -1.752573204040527344e+01
-4.905963134765625000e+01 -5.947819137573242188e+01 -1.291395759582519531e+01
-4.779773712158203125e+01 -5.296894454956054688e+01 -1.769285011291503906e+01
-4.464820480346679688e+01 -5.608430862426757812e+01 -1.810736274719238281e+01
-4.688383102416992188e+01 -6.104649734497070312e+01 -1.352139759063720703e+01
-4.686438751220703125e+01 -5.026587677001953125e+01 -1.998359870910644531e+01
-4.848561096191406250e+01 -4.840308380126953125e+01 -1.467298603057861328e+01
-3.867164230346679688e+01 -5.928924560546875000e+01 -7.198577880859375000e+00
-4.044432830810546875e+01 -6.116419601440429688e+01 -1.112099456787109375e+01
-3.912258911132812500e+01 -5.728419113159179688e+01 -5.226538658142089844e+00
-3.292401123046875000e+01 -3.399029541015625000e+01 -3.086214637756347656e+01
-4.428462219238281250e+01 -5.337694549560546875e+01 -4.215132713317871094e+00
-4.104912567138671875e+01 -5.557625198364257812e+01 -3.800768375396728516e+00
-4.098476409912109375e+01 -5.666113281250000000e+01 -1.680841445922851562e+01
-4.356861877441406250e+01 -6.157966232299804688e+01 -1.332683372497558594e+01
-5.027467346191406250e+01 -5.662247848510742188e+01 -1.058299064636230469e+01
-4.826403808593750000e+01 -5.323653030395507812e+01 -6.831873893737792969e+00
-5.046461868286132812e+01 -6.028913116455078125e+01 -7.910353660583496094e+00
-4.844248962402343750e+01 -5.685453033447265625e+01 -4.521652221679687500e+00
-4.405040740966796875e+01 -5.738905715942382812e+01 -1.937711477279663086e+00
-4.089293670654296875e+01 -5.836541748046875000e+01 -2.383448600769042969e+00
-3.903167724609375000e+01 -5.984987258911132812e+01 -3.870170593261718750e+00
-4.908107757568359375e+01 -6.277359771728515625e+01 -1.062066555023193359e+01
-4.676046752929687500e+01 -6.386451339721679688e+01 -1.169234561920166016e+01
-4.340937042236328125e+01 -6.345612716674804688e+01 -1.223779106140136719e+01
-4.906478118896484375e+01 -6.631440734863281250e+01 -7.833573818206787109e+00
-5.010141754150390625e+01 -6.503560638427734375e+01 -4.098965644836425781e+00
-4.266029739379882812e+01 -7.090769958496093750e+01 5.213058948516845703e+00
-4.241820144653320312e+01 -6.727525329589843750e+01 3.241637468338012695e+00
-4.354692840576171875e+01 -6.718272399902343750e+01 3.356485366821289062e+00
-4.353610992431640625e+01 -7.083644104003906250e+01 5.477350234985351562e+00
-4.368297576904296875e+01 -6.256251144409179688e+01 8.278614878654479980e-01
-4.475577545166015625e+01 -6.368610382080078125e+01 1.305619120597839355e+00
-4.769542694091796875e+01 -6.303460693359375000e+01 -5.025001764297485352e-01
-4.732900238037109375e+01 -6.785044860839843750e+01 2.437308311462402344e+00
-4.949517059326171875e+01 -7.036778259277343750e+01 -7.868483066558837891e-01
-4.890395355224609375e+01 -7.345997619628906250e+01 1.933721542358398438e+00
-4.721139526367187500e+01 -7.111128234863281250e+01 4.683977127075195312e+00
-4.964843750000000000e+01 -6.583390808105468750e+01 -2.160455226898193359e+00
-4.457120513916015625e+01 -7.304383850097656250e+01 6.688104152679443359e+00
-4.412777328491210938e+01 -7.396961212158203125e+01 6.840518951416015625e+00
-4.775443649291992188e+01 -6.128104400634765625e+01 -1.433905243873596191e+00
-4.033436203002929688e+01 -6.240330123901367188e+01 -4.198056161403656006e-01
-4.043424987792968750e+01 -6.845709228515625000e+01 2.713677883148193359e+00
-4.162292861938476562e+01 -7.257740020751953125e+01 5.065955162048339844e+00
-4.354686355590820312e+01 -7.520080566406250000e+01 6.527894496917724609e+00
-3.909712982177734375e+01 -6.868914794921875000e+01 8.155757784843444824e-01
-4.071558380126953125e+01 -7.307408905029296875e+01 3.686383485794067383e+00
-4.260461425781250000e+01 -7.525757598876953125e+01 4.996547698974609375e+00
-3.890001678466796875e+01 -6.944858551025390625e+01 -1.846369504928588867e+00
-4.034186553955078125e+01 -7.343589782714843750e+01 1.449991941452026367e+00
-3.852817535400390625e+01 -6.403289794921875000e+01 -5.949946880340576172e+00
-3.864486312866210938e+01 -6.315510940551757812e+01 -2.662053346633911133e+00
-4.190013885498046875e+01 -7.513833618164062500e+01 3.181784629821777344e+00
-4.651404953002929688e+01 -7.549334716796875000e+01 6.176143169403076172e+00
-4.496455764770507812e+01 -7.669405364990234375e+01 5.087740421295166016e+00
-4.709121322631835938e+01 -7.425469207763671875e+01 6.055806159973144531e+00
-4.941621780395507812e+01 -7.064814758300781250e+01 -2.057523250579833984e+00
-4.856908416748046875e+01 -7.442929840087890625e+01 1.088551521301269531e+00
-4.830507278442382812e+01 -7.134436035156250000e+01 -3.869986772537231445e+00
-4.751063156127929688e+01 -7.510221862792968750e+01 1.611778289079666138e-01
-4.780183792114257812e+01 -7.585944366455078125e+01 3.443250179290771484e+00
-4.824140930175781250e+01 -7.452025604248046875e+01 4.008289337158203125e+00
-3.859706878662109375e+01 -6.198631668090820312e+01 -6.597846984863281250e+00
-4.025527191162109375e+01 -6.286774444580078125e+01 -1.000223350524902344e+01
-4.030893325805664062e+01 -6.485411834716796875e+01 -9.260649681091308594e+00
-4.040416336059570312e+01 -7.040446472167968750e+01 -4.492518424987792969e+00
-4.353816604614257812e+01 -6.555119323730468750e+01 -1.095885753631591797e+01
-4.676041412353515625e+01 -6.641572570800781250e+01 -9.801641464233398438e+00
-4.623518753051757812e+01 -7.172584533691406250e+01 -5.061247825622558594e+00
-4.345455551147460938e+01 -7.151445007324218750e+01 -5.438841342926025391e+00
-4.613249969482421875e+01 -7.527226257324218750e+01 -4.043550491333007812e-01
-4.382918930053710938e+01 -7.483983612060546875e+01 -1.284040212631225586e+00
-4.143776321411132812e+01 -7.405490875244140625e+01 -6.127028465270996094e-01
-4.591883468627929688e+01 -7.633110809326171875e+01 2.810022830963134766e+00
-4.688900375366210938e+01 -7.653025054931640625e+01 3.247152328491210938e+00
-4.432107162475585938e+01 -7.600229644775390625e+01 4.185652732849121094e+00
-4.419854354858398438e+01 -7.579866027832031250e+01 1.692487001419067383e+00
-4.290357208251953125e+01 -7.553444671630859375e+01 2.221898555755615234e+00
-3.509878158569335938e+01 -4.303971099853515625e+01 -3.876484298706054688e+01
4.300999832153320312e+01 -6.575094604492187500e+01 -4.026782989501953125e+01
3.920195007324218750e+01 -6.433369445800781250e+01 -3.873949432373046875e+01
2.756561851501464844e+01 -7.426926422119140625e+01 -4.446353149414062500e+01
2.870016479492187500e+01 -6.897830200195312500e+01 -3.919950103759765625e+01
3.132655906677246094e+01 -7.831176757812500000e+01 -4.739224243164062500e+01
4.125122451782226562e+01 -7.716197204589843750e+01 -4.833227920532226562e+01
3.657622146606445312e+01 -7.844659423828125000e+01 -4.911347198486328125e+01
3.392990875244140625e+01 -6.551503753662109375e+01 -3.737854766845703125e+01
4.540972518920898438e+01 -6.881752014160156250e+01 -4.323097991943359375e+01
4.494481277465820312e+01 -7.319941711425781250e+01 -4.667178344726562500e+01
4.383725738525390625e+01 -7.348059082031250000e+01 -3.689991378784179688e+01
4.352865600585937500e+01 -7.802344512939453125e+01 -4.026054000854492188e+01
3.994658660888671875e+01 -8.200791931152343750e+01 -4.196613311767578125e+01
3.485270309448242188e+01 -8.272950744628906250e+01 -4.386426544189453125e+01
3.058395004272460938e+01 -8.165742492675781250e+01 -4.358469390869140625e+01
4.104037857055664062e+01 -6.966841125488281250e+01 -3.462982177734375000e+01
3.710455322265625000e+01 -6.806275939941406250e+01 -3.363472747802734375e+01
3.150777626037597656e+01 -6.879758453369140625e+01 -3.403972625732421875e+01
3.803077316284179688e+01 -7.377646636962890625e+01 -2.781902122497558594e+01
3.749922943115234375e+01 -8.267224121093750000e+01 -2.272349166870117188e+01
2.914929771423339844e+01 -9.759216308593750000e+01 -2.142274856567382812e+01
3.067783737182617188e+01 -9.489786529541015625e+01 -2.701958847045898438e+01
3.266402435302734375e+01 -9.480943298339843750e+01 -2.508868789672851562e+01
3.112695884704589844e+01 -9.768835449218750000e+01 -2.044141006469726562e+01
3.396479415893554688e+01 -9.163110351562500000e+01 -2.985674476623535156e+01
3.454498291015625000e+01 -9.205615234375000000e+01 -2.749808883666992188e+01
3.721125411987304688e+01 -8.847174072265625000e+01 -2.550572586059570312e+01
3.564261627197265625e+01 -9.178953552246093750e+01 -2.107197380065917969e+01
3.706024169921875000e+01 -8.542250061035156250e+01 -2.175587272644042969e+01
3.585170364379882812e+01 -8.678395080566406250e+01 -1.829574966430664062e+01
3.461986160278320312e+01 -9.446222686767578125e+01 -1.717446899414062500e+01
3.158187484741210938e+01 -9.831529235839843750e+01 -1.703128242492675781e+01
3.256339263916015625e+01 -9.602290344238281250e+01 -1.403636455535888672e+01
2.917745971679687500e+01 -9.843202972412109375e+01 -1.710573196411132812e+01
3.775447845458984375e+01 -8.747975921630859375e+01 -2.671907043457031250e+01
3.223512649536132812e+01 -8.896235656738281250e+01 -3.601971054077148438e+01
2.846871376037597656e+01 -9.328824615478515625e+01 -2.951707458496093750e+01
2.681176376342773438e+01 -9.595909118652343750e+01 -2.261023139953613281e+01
2.730548095703125000e+01 -9.688908386230468750e+01 -1.770679664611816406e+01
2.576709365844726562e+01 -9.063956451416015625e+01 -3.026350021362304688e+01
