3.947672653198242188e+01 -4.524626922607421875e+01 -3.471416091918945312e+01
4.589577484130859375e+01 -4.597167205810546875e+01 -3.598825073242187500e+01
4.986351776123046875e+01 -4.450794219970703125e+01 -2.989763259887695312e+01
1.718638229370117188e+01 -3.728636932373046875e+01 -4.040467071533203125e+01
1.583919715881347656e+01 -3.742328643798828125e+01 -5.266005325317382812e+01
2.111610794067382812e+01 -3.987059783935546875e+01 -5.079705810546875000e+01
2.495362472534179688e+01 -3.997692108154296875e+01 -3.772925949096679688e+01
1.121295809745788574e+00 -3.673958206176757812e+01 -5.470599365234375000e+01
3.519025087356567383e+00 -3.641345214843750000e+01 -4.220442581176757812e+01
-5.453419685363769531e+00 -3.770539093017578125e+01 -4.502896118164062500e+01
-5.848245143890380859e+00 -3.779855728149414062e+01 -5.341022872924804688e+01
1.181526374816894531e+01 -3.758283615112304688e+01 -2.131489944458007812e+01
1.364847850799560547e+01 -3.462407684326171875e+01 -1.457896232604980469e+01
9.976896286010742188e+00 -3.547880554199218750e+01 -1.590493583679199219e+01
7.664123535156250000e+00 -3.751514434814453125e+01 -2.282593154907226562e+01
-1.689559364318847656e+01 -9.232439041137695312e+00 -1.101895980834960938e+02
-1.828120994567871094e+01 -1.905458068847656250e+01 -1.124798812866210938e+02
-1.702946090698242188e+01 -1.199086189270019531e+01 -4.757829666137695312e+01
-2.434793663024902344e+01 -1.787956237792968750e+01 -5.344333648681640625e+01
-2.576375770568847656e+01 -2.147982978820800781e+01 -4.120731735229492188e+01
-1.800649452209472656e+01 -1.414027690887451172e+01 -3.811189270019531250e+01
-7.122614383697509766e+00 -1.313715219497680664e+00 -9.609381103515625000e+01
-1.040873908996582031e+01 -1.084328770637512207e+00 -1.020457000732421875e+02
5.785534667968750000e+01 -5.133095550537109375e+01 1.261284065246582031e+01
5.778534698486328125e+01 -4.649726104736328125e+01 1.027420330047607422e+01
5.067618942260742188e+01 -4.515175628662109375e+01 -9.461347961425781250e+01
5.664995193481445312e+01 -5.679203033447265625e+01 -8.155705261230468750e+01
4.508027267456054688e+01 -3.719777297973632812e+01 -1.048466796875000000e+02
4.131539154052734375e+01 -3.069885635375976562e+01 -1.119451751708984375e+02
3.842766571044921875e+01 -2.728775024414062500e+01 -1.184689941406250000e+02
3.460359954833984375e+01 -4.385439300537109375e+01 -3.063741493225097656e+01
2.390554237365722656e+01 -4.428789138793945312e+01 -5.307219314575195312e+01
1.135615539550781250e+01 -3.931246948242187500e+01 -6.418868255615234375e+01
-1.865549087524414062e+01 -3.849583053588867188e+01 -6.338581085205078125e+01
-1.872497177124023438e+01 -3.831153106689453125e+01 -7.312689208984375000e+01
-9.201474189758300781e+00 -4.087007522583007812e+01 -7.017996978759765625e+01
-1.109222984313964844e+01 -3.982484054565429688e+01 -6.251086425781250000e+01
-2.702788734436035156e+01 -2.725514602661132812e+01 -5.476804351806640625e+01
-2.461611747741699219e+01 -3.485728454589843750e+01 -5.312590408325195312e+01
-2.435640335083007812e+01 -3.590135574340820312e+01 -4.374346160888671875e+01
-2.745779418945312500e+01 -2.952885818481445312e+01 -4.405280685424804688e+01
6.212535476684570312e+01 -5.742369842529296875e+01 -6.112681961059570312e+01
5.860876464843750000e+01 -4.568201446533203125e+01 -6.702541351318359375e+01
-2.013119316101074219e+01 -2.758111572265625000e+01 -1.011995620727539062e+02
-1.778577613830566406e+01 -2.848632240295410156e+01 -1.086126937866210938e+02
-1.553621673583984375e+01 -2.636972045898437500e+01 -1.154660491943359375e+02
5.832540035247802734e+00 -4.505863952636718750e+01 -8.458934020996093750e+01
4.770415306091308594e+00 -4.578862762451171875e+01 -9.949750518798828125e+01
8.685463905334472656e+00 -4.836405563354492188e+01 -9.878753662109375000e+01
7.991644382476806641e+00 -4.616222381591796875e+01 -8.372297668457031250e+01
1.891138267517089844e+01 -5.770906829833984375e+01 -7.671733093261718750e+01
2.022859382629394531e+01 -5.943693923950195312e+01 -9.037579345703125000e+01
2.770875549316406250e+01 -6.497682189941406250e+01 -7.004670715332031250e+01
1.219719696044921875e+01 -4.314925003051757812e+01 -1.129518585205078125e+02
6.233170509338378906e+00 -3.854710006713867188e+01 -1.190138702392578125e+02
1.473688316345214844e+01 -3.968355560302734375e+01 -1.209463500976562500e+02
-3.414139986038208008e+00 -3.588779449462890625e+01 -1.183712997436523438e+02
-1.118800926208496094e+01 -3.132238197326660156e+01 -1.172018280029296875e+02
-1.070181560516357422e+01 -5.748416185379028320e-01 -1.084670410156250000e+02
2.334601783752441406e+01 -3.938634490966796875e+01 -1.212582397460937500e+02
4.380993652343750000e+01 -7.410742950439453125e+01 -6.530142974853515625e+01
4.893115234375000000e+01 -7.751375579833984375e+01 -5.928913497924804688e+01
4.755803298950195312e+01 -7.450076293945312500e+01 -5.279033660888671875e+01
4.239119720458984375e+01 -7.069604492187500000e+01 -5.804597854614257812e+01
5.767589569091796875e+01 -3.399860000610351562e+01 -2.735330581665039062e+01
5.493570709228515625e+01 -4.102505493164062500e+01 -2.913823509216308594e+01
5.293444824218750000e+01 -4.332634735107421875e+01 -3.711353302001953125e+01
-6.566193580627441406e+00 -4.331563949584960938e+01 -8.621464538574218750e+01
-1.722351455688476562e+01 -3.811514282226562500e+01 -8.839555358886718750e+01
4.036317062377929688e+01 -4.420814895629882812e+01 -2.242324256896972656e+01
6.086249923706054688e+01 -4.472739410400390625e+01 3.488763332366943359e+00
6.179237747192382812e+01 -4.855556488037109375e+01 3.053811192512512207e-01
5.935958099365234375e+01 -3.940769195556640625e+01 -1.458644866943359375e+01
5.842321014404296875e+01 -3.443787384033203125e+01 -1.065977191925048828e+01
4.025020217895507812e+01 -3.944650650024414062e+01 -1.327532958984375000e+01
4.190565872192382812e+01 -4.315589523315429688e+01 -1.749057960510253906e+01
4.279013061523437500e+01 -4.352430343627929688e+01 -1.433392333984375000e+01
4.143527984619140625e+01 -4.098296737670898438e+01 -9.371412277221679688e+00
5.443335771560668945e-01 -3.635269546508789062e+01 -2.118233680725097656e+01
-1.468777060508728027e+00 -3.664512252807617188e+01 -2.679703712463378906e+01
3.715132522583007812e+01 -1.684880065917968750e+01 -2.112194442749023438e+01
4.998860931396484375e+01 -1.820847511291503906e+01 -2.519003868103027344e+01
4.840472793579101562e+01 -1.592165565490722656e+01 -3.639423370361328125e+01
9.616220474243164062e+00 -3.606127929687500000e+01 -4.216547393798828125e+01
1.008953857421875000e+01 -3.759251403808593750e+01 -3.153873634338378906e+01
5.356106758117675781e+00 -3.736303710937500000e+01 -3.213702392578125000e+01
3.233040237426757812e+01 -4.296189880371093750e+01 -2.657030677795410156e+01
3.587570953369140625e+01 -4.218251800537109375e+01 -1.928517150878906250e+01
3.005482101440429688e+01 -4.098941802978515625e+01 -2.061991500854492188e+01
2.683732986450195312e+01 -4.096948242187500000e+01 -2.813801574707031250e+01
-2.310878372192382812e+01 -1.550256538391113281e+01 -6.680224609375000000e+01
-2.642774391174316406e+01 -2.593074989318847656e+01 -6.778746032714843750e+01
5.967297363281250000e+01 -5.797854614257812500e+01 2.278559446334838867e+00
6.003760910034179688e+01 -5.479276275634765625e+01 2.088915109634399414e-01
8.839384078979492188e+00 -3.609222412109375000e+01 -5.425749969482421875e+01
4.595425033569335938e+01 -1.558318519592285156e+01 -5.090559005737304688e+01
6.529247283935546875e+00 -3.872350692749023438e+01 -6.522492980957031250e+01
-6.933577060699462891e+00 -1.881460571289062500e+01 -2.420628166198730469e+01
-1.073956394195556641e+01 -2.489054679870605469e+01 -2.284999465942382812e+01
-8.763227462768554688e+00 -2.799576377868652344e+01 -2.039383125305175781e+01
-6.741270542144775391e+00 -2.361104202270507812e+01 -1.781747817993164062e+01
4.370899581909179688e+01 -4.777160644531250000e+01 3.313118696212768555e+00
4.534489822387695312e+01 -5.168953704833984375e+01 1.896782517433166504e-01
4.590280151367187500e+01 -5.408082199096679688e+01 2.627836942672729492e+00
4.426282119750976562e+01 -5.050195312500000000e+01 6.463910579681396484e+00
4.627645874023437500e+01 -4.478633880615234375e+01 -2.052523422241210938e+01
5.145152664184570312e+01 -4.414776992797851562e+01 -2.354819679260253906e+01
5.222000885009765625e+01 -4.583896255493164062e+01 -1.778660583496093750e+01
4.705899047851562500e+01 -4.575739669799804688e+01 -1.600342941284179688e+01
5.630572509765625000e+01 -4.128247451782226562e+01 -2.252136230468750000e+01
5.692883300781250000e+01 -4.356459808349609375e+01 -1.747733688354492188e+01
4.563743209838867188e+01 -4.376084518432617188e+01 6.443801879882812500e+00
5.157585906982421875e+01 -4.107098388671875000e+01 7.840960502624511719e+00
4.738793182373046875e+01 -3.213317489624023438e+01 -5.516466617584228516e+00
4.285550689697265625e+01 -3.742072296142578125e+01 -4.915797233581542969e+00
3.875679731369018555e+00 -3.789190769195556641e+00 -7.291481018066406250e+01
-6.650338649749755859e+00 -5.540232658386230469e+00 -7.445951080322265625e+01
-7.945322990417480469e+00 -7.875018119812011719e+00 -5.886011886596679688e+01
-9.302551269531250000e+00 -9.597483634948730469e+00 -4.411070632934570312e+01
-9.455671310424804688e+00 -1.407789039611816406e+01 -3.104996299743652344e+01
1.466891050338745117e+00 -1.018914222717285156e+01 -2.896798706054687500e+01
-1.522626972198486328e+01 -9.847466468811035156e+00 -6.182758331298828125e+01
3.633527374267578125e+01 -2.924611282348632812e+01 -1.257643604278564453e+01
4.379637908935546875e+01 -2.497586441040039062e+01 -1.501105690002441406e+01
3.651614379882812500e+01 -2.176410675048828125e+01 -1.528512573242187500e+01
-4.667419493198394775e-01 -4.065535354614257812e+01 -6.554866027832031250e+01
6.010803985595703125e+01 -5.180145263671875000e+01 -2.786147594451904297e+00
3.455085372924804688e+01 -8.823916435241699219e+00 -1.050616302490234375e+02
2.363088607788085938e+01 -1.599062323570251465e+00 -1.025195922851562500e+02
2.589853858947753906e+01 -3.940859317779541016e+00 -9.585985565185546875e+01
3.743772125244140625e+01 -1.258185577392578125e+01 -9.811857604980468750e+01
5.033430862426757812e+01 -5.443509674072265625e+01 -3.312715530395507812e+00
5.582385253906250000e+01 -5.454198074340820312e+01 -4.493705749511718750e+00
-7.557775974273681641e+00 -3.629103851318359375e+01 -2.665768432617187500e+01
-5.039034843444824219e+00 -3.454521560668945312e+01 -2.204508399963378906e+01
-7.236660003662109375e+00 -3.289642333984375000e+01 -2.126807022094726562e+01
-1.181450080871582031e+01 -3.678712844848632812e+01 -2.544194221496582031e+01
-1.195483970642089844e+01 -7.127016544342041016e+00 -7.699217987060546875e+01
-2.707420921325683594e+01 -2.513233566284179688e+01 -3.402706146240234375e+01
-1.992787551879882812e+01 -1.859533882141113281e+01 -3.166947364807128906e+01
-5.112663745880126953e+00 -3.038047790527343750e+00 -8.780342102050781250e+01
4.187463760375976562e+00 -1.554138898849487305e+00 -8.669785308837890625e+01
3.932181119918823242e+00 8.940501213073730469e-01 -9.538909149169921875e+01
1.463552284240722656e+01 -1.341833019256591797e+01 -2.088146209716796875e+01
1.197915935516357422e+01 -3.630761384963989258e+00 -6.975919342041015625e+01
1.158976554870605469e+01 -1.850047469139099121e+00 -8.484274291992187500e+01
1.149164009094238281e+01 4.404517114162445068e-01 -9.566419982910156250e+01
1.089055061340332031e+01 2.945992231369018555e+00 -1.021329498291015625e+02
2.578156948089599609e+00 3.167342662811279297e+00 -1.012429580688476562e+02
5.677150344848632812e+01 -4.218758010864257812e+01 6.804902076721191406e+00
5.192140960693359375e+01 -4.542427825927734375e+01 1.210368537902832031e+01
7.489491701126098633e-01 4.249827384948730469e+00 -1.082341156005859375e+02
9.952770233154296875e+00 4.473975181579589844e+00 -1.085580062866210938e+02
2.045803451538085938e+01 -3.162386417388916016e+00 -8.348903656005859375e+01
3.052707481384277344e+01 -7.410023689270019531e+00 -8.222364807128906250e+01
2.079239845275878906e+01 -4.369679927825927734e+00 -6.912672424316406250e+01
3.147759437561035156e+01 -7.845971584320068359e+00 -6.679199981689453125e+01
2.468448448181152344e+01 -8.689599990844726562e+00 -2.340432548522949219e+01
4.715611648559570312e+01 -6.153034591674804688e+01 1.721953582763671875e+01
4.674886322021484375e+01 -5.181995773315429688e+01 1.312488842010498047e+01
4.449459075927734375e+01 -5.420581054687500000e+01 9.168888092041015625e+00
4.471450424194335938e+01 -6.282099533081054688e+01 1.482695007324218750e+01
4.634558486938476562e+01 -4.724786376953125000e+01 1.025906562805175781e+01
5.187120819091796875e+01 -5.004645538330078125e+01 1.445104026794433594e+01
4.389355850219726562e+01 -1.613532829284667969e+01 -6.660398864746093750e+01
3.285549545288085938e+01 -3.808078765869140625e+01 -1.488690185546875000e+01
4.338869094848632812e+01 -1.797864151000976562e+01 -8.362561035156250000e+01
5.449659347534179688e+01 -2.787607765197753906e+01 -6.166677093505859375e+01
5.382032394409179688e+01 -3.104338455200195312e+01 -7.460955810546875000e+01
4.379724884033203125e+01 -2.293304061889648438e+01 -1.013012847900390625e+02
5.106316375732421875e+01 -3.239423370361328125e+01 -9.050323486328125000e+01
3.825342559814453125e+01 -1.683259773254394531e+01 -1.147840957641601562e+02
4.038271713256835938e+01 -1.896865844726562500e+01 -1.077005233764648438e+02
5.667623901367187500e+01 -4.372864532470703125e+01 -8.009870147705078125e+01
5.329836273193359375e+01 -6.656951141357421875e+01 5.312983512878417969e+00
4.821256256103515625e+01 -6.542586517333984375e+01 6.671566009521484375e+00
3.297808074951171875e+01 -6.665860652923583984e+00 -1.115757446289062500e+02
3.587049484252929688e+01 -6.809534454345703125e+01 -6.336242675781250000e+01
-2.162517309188842773e-01 -4.164785003662109375e+01 -7.506730651855468750e+01
5.004557132720947266e+00 -4.125650787353515625e+01 -7.426163482666015625e+01
-1.833792495727539062e+01 -3.819859313964843750e+01 -7.898002624511718750e+01
-7.696989536285400391e+00 -4.186617279052734375e+01 -7.676013183593750000e+01
5.744264602661132812e+01 -6.630194854736328125e+01 6.349877357482910156e+00
1.413324260711669922e+01 -3.109978866577148438e+01 -1.108214950561523438e+01
1.145356941223144531e+01 -3.197618484497070312e+01 -1.292096519470214844e+01
4.978399658203125000e+01 -7.422492980957031250e+01 -7.204744720458984375e+01
5.371144866943359375e+01 -7.679947662353515625e+01 -6.637712860107421875e+01
6.279240036010742188e+01 -6.800053405761718750e+01 -6.757796478271484375e+01
5.913984298706054688e+01 -7.343468475341796875e+01 -6.845178985595703125e+01
5.601089477539062500e+01 -6.958680725097656250e+01 -7.539891815185546875e+01
5.988907623291015625e+01 -6.305599975585937500e+01 -7.488907623291015625e+01
3.728178024291992188e+00 -4.444940948486328125e+01 -8.487467956542968750e+01
1.752252504229545593e-02 -4.398428726196289062e+01 -8.469702911376953125e+01
-2.172825622558593750e+01 -1.500799369812011719e+01 -7.975118255615234375e+01
-2.470750808715820312e+01 -2.641510581970214844e+01 -7.933401489257812500e+01
5.843815231323242188e+01 -3.594555282592773438e+01 -2.053288269042968750e+01
5.628086471557617188e+01 -2.586054611206054688e+01 -2.502760314941406250e+01
5.698242187500000000e+01 -2.960283279418945312e+01 -1.745511245727539062e+01
5.340863037109375000e+01 -3.044889259338378906e+01 -8.661346435546875000e+00
3.449449157714843750e+01 -3.428703308105468750e+01 -1.224529838562011719e+01
4.041010665893554688e+01 -3.394269561767578125e+01 -1.145896816253662109e+01
1.353533649444580078e+01 -5.367400360107421875e+01 -9.444877624511718750e+01
1.212550926208496094e+01 -5.020076751708984375e+01 -8.097229003906250000e+01
4.517823410034179688e+01 -6.665268707275390625e+01 -5.308289718627929688e+01
5.095092773437500000e+01 -6.610951995849609375e+01 -4.907038879394531250e+01
1.942345237731933594e+01 -3.856092834472656250e+01 -3.112957191467285156e+01
1.860964775085449219e+01 -1.871675109863281250e+01 -1.153354549407958984e+01
2.690760231018066406e+01 -1.495089244842529297e+01 -1.366515636444091797e+01
2.119433975219726562e+01 -3.847365570068359375e+01 -2.102293968200683594e+01
5.924326324462890625e+01 -6.417542266845703125e+01 1.225898933410644531e+01
5.909197998046875000e+01 -6.572348785400390625e+01 8.627196311950683594e+00
5.181086349487304688e+01 -2.506011962890625000e+01 -1.593819999694824219e+01
-3.552971601486206055e+00 -3.765329742431640625e+01 -3.479373931884765625e+01
1.091670417785644531e+01 -1.862334060668945312e+01 -1.655174255371093750e+01
1.671465682983398438e+01 -2.467358016967773438e+01 -9.487643241882324219e+00
-2.737179946899414062e+01 -3.181222152709960938e+01 -3.823070907592773438e+01
2.246841812133789062e+01 2.443127334117889404e-01 -1.094089965820312500e+02
4.578847503662109375e+01 -5.729821777343750000e+01 5.315628051757812500e+00
4.486076736450195312e+01 -6.380857086181640625e+01 9.624529838562011719e+00
5.102847290039062500e+01 -6.049899291992187500e+01 1.779596328735351562e+01
5.639817428588867188e+01 -6.095831298828125000e+01 1.599707794189453125e+01
-2.250517654418945312e+01 -2.781261253356933594e+01 -8.962401580810546875e+01
8.085014343261718750e+00 -4.143704986572265625e+01 -7.315494537353515625e+01
5.992321014404296875e+01 -5.273535156250000000e+01 -7.302479553222656250e+01
6.354853439331054688e+01 -6.172273635864257812e+01 -6.506679534912109375e+01
2.275717544555664062e+01 -3.670886993408203125e+01 -1.521645355224609375e+01
-1.324789619445800781e+01 -1.980025100708007812e+01 -2.738226318359375000e+01
6.697915196418762207e-01 -1.559129142761230469e+01 -2.059459304809570312e+01
-7.023896574974060059e-01 -2.094231796264648438e+01 -1.370113849639892578e+01
5.390890598297119141e+00 -2.363946151733398438e+01 -1.079806518554687500e+01
9.720285415649414062e+00 -2.907171058654785156e+01 -1.002731132507324219e+01
5.017105865478515625e+01 -6.551823425292968750e+01 1.928824806213378906e+01
5.555002975463867188e+01 -6.588847351074218750e+01 1.768514442443847656e+01
5.842240524291992188e+01 -6.900994873046875000e+01 1.410875225067138672e+01
5.828926849365234375e+01 -7.008518981933593750e+01 1.063568115234375000e+01
5.642282104492187500e+01 -6.963893890380859375e+01 7.645314693450927734e+00
4.635544586181640625e+01 -6.670976257324218750e+01 1.871608734130859375e+01
4.431641387939453125e+01 -6.795652008056640625e+01 1.648726081848144531e+01
4.448239898681640625e+01 -6.726666259765625000e+01 1.129089164733886719e+01
4.548117065429687500e+01 -7.190451812744140625e+01 1.972076034545898438e+01
4.924251174926757812e+01 -7.427631378173828125e+01 2.122118949890136719e+01
5.557461547851562500e+01 -8.304386901855468750e+01 1.566134071350097656e+01
5.685848999023437500e+01 -7.744408416748046875e+01 1.646071434020996094e+01
5.576366424560546875e+01 -7.941446685791015625e+01 1.791254997253417969e+01
5.469035720825195312e+01 -8.447001647949218750e+01 1.813706588745117188e+01
5.283863449096679688e+01 -8.860050964355468750e+01 1.902447128295898438e+01
5.355109405517578125e+01 -8.780229187011718750e+01 1.675621223449707031e+01
5.397044754028320312e+01 -7.619006347656250000e+01 1.987511062622070312e+01
5.229752349853515625e+01 -8.277507019042968750e+01 2.064514732360839844e+01
4.859118652343750000e+01 -8.181829833984375000e+01 2.171653556823730469e+01
4.776556777954101562e+01 -8.688002014160156250e+01 2.216430282592773438e+01
5.074958419799804688e+01 -8.761789703369140625e+01 2.137215232849121094e+01
5.013777542114257812e+01 -7.734124755859375000e+01 2.126060867309570312e+01
5.436998748779296875e+01 -7.379234313964843750e+01 1.964080429077148438e+01
5.126832962036132812e+01 -9.078809356689453125e+01 1.799991035461425781e+01
5.144598388671875000e+01 -9.029534912109375000e+01 1.950175094604492188e+01
4.955924987792968750e+01 -8.983903503417968750e+01 2.123037338256835938e+01
4.820628738403320312e+01 -9.206370544433593750e+01 2.090320014953613281e+01
5.735604095458984375e+01 -7.477653503417968750e+01 1.186440277099609375e+01
5.501430130004882812e+01 -8.273206329345703125e+01 1.379596710205078125e+01
5.247301483154296875e+01 -8.772419738769531250e+01 1.501411724090576172e+01
5.024117279052734375e+01 -9.055198669433593750e+01 1.667555999755859375e+01
5.270403289794921875e+01 -8.331656646728515625e+01 1.225714111328125000e+01
5.079110717773437500e+01 -8.735707855224609375e+01 1.395273303985595703e+01
4.875645065307617188e+01 -8.952110290527343750e+01 1.553311443328857422e+01
4.973238372802734375e+01 -8.346984863281250000e+01 1.185087776184082031e+01
4.852771377563476562e+01 -8.705141448974609375e+01 1.371995258331298828e+01
5.259893035888671875e+01 -7.200038909912109375e+01 7.867374420166015625e+00
5.581150436401367188e+01 -7.240428161621093750e+01 8.752778053283691406e+00
4.783612823486328125e+01 -8.871171569824218750e+01 1.495836925506591797e+01
4.689397048950195312e+01 -8.976007080078125000e+01 1.829277992248535156e+01
4.589756774902343750e+01 -7.962055969238281250e+01 2.119928741455078125e+01
4.522854995727539062e+01 -8.652964782714843750e+01 2.152358627319335938e+01
4.419376373291015625e+01 -7.925768280029296875e+01 2.008277130126953125e+01
4.392714309692382812e+01 -8.624517822265625000e+01 2.033635330200195312e+01
4.571402740478515625e+01 -8.961545562744140625e+01 2.147630119323730469e+01
4.731248855590820312e+01 -8.919343566894531250e+01 2.195821189880371094e+01
5.261857986450195312e+01 -6.860387420654296875e+01 6.373714447021484375e+00
4.734899902343750000e+01 -6.761165618896484375e+01 8.205445289611816406e+00
4.744614410400390625e+01 -7.083427429199218750e+01 9.254276275634765625e+00
4.630687332153320312e+01 -8.264039611816406250e+01 1.288139629364013672e+01
4.440007781982421875e+01 -7.089698028564453125e+01 1.231082344055175781e+01
4.366711807250976562e+01 -7.290839385986328125e+01 1.722871208190917969e+01
4.306090164184570312e+01 -8.033516693115234375e+01 1.822910690307617188e+01
4.346102142333984375e+01 -8.117781066894531250e+01 1.572648334503173828e+01
4.331034469604492188e+01 -8.578692626953125000e+01 1.858263969421386719e+01
4.389086914062500000e+01 -8.579659271240234375e+01 1.668984413146972656e+01
4.599481964111328125e+01 -8.662028503417968750e+01 1.469873619079589844e+01
4.448015213012695312e+01 -8.886759185791015625e+01 1.867395973205566406e+01
4.483533477783203125e+01 -8.935572814941406250e+01 2.057983207702636719e+01
4.640183258056640625e+01 -8.973121643066406250e+01 1.689994049072265625e+01
4.461615371704101562e+01 -8.814949035644531250e+01 1.731511497497558594e+01
4.622360992431640625e+01 -8.896690368652343750e+01 1.598544883728027344e+01
2.756401634216308594e+01 -5.101520919799804688e+01 1.254251384735107422e+01
2.095326614379882812e+01 -5.116181564331054688e+01 1.277361011505126953e+01
2.213055419921875000e+01 -4.780962371826171875e+01 1.009911346435546875e+01
2.817099380493164062e+01 -4.810752487182617188e+01 1.026156330108642578e+01
3.079849815368652344e+01 -4.369349670410156250e+01 2.130271339416503906e+01
3.213013839721679688e+01 -4.672159194946289062e+01 1.797751426696777344e+01
3.276523590087890625e+01 -4.274915313720703125e+01 1.618111419677734375e+01
3.091540145874023438e+01 -3.883397293090820312e+01 1.928936958312988281e+01
2.675588607788085938e+01 -4.147018432617187500e+01 2.317786026000976562e+01
2.639114379882812500e+01 -3.613626861572265625e+01 2.037550735473632812e+01
3.150509643554687500e+01 -3.500189590454101562e+01 1.577774238586425781e+01
3.337537384033203125e+01 -3.920281219482421875e+01 1.272809600830078125e+01
3.411343383789062500e+01 -3.026118087768554688e+01 -6.284096717834472656e+00
3.303255462646484375e+01 -2.436874961853027344e+01 -4.003580570220947266e+00
1.822742080688476562e+01 -3.435090255737304688e+01 -8.526738166809082031e+00
1.657724380493164062e+01 -3.251456451416015625e+01 -6.567868232727050781e+00
3.073146629333496094e+01 -4.941910934448242188e+01 1.475935840606689453e+01
3.162530899047851562e+01 -4.585434341430664062e+01 1.302541065216064453e+01
1.576227855682373047e+01 -4.065921783447265625e+01 1.056329917907714844e+01
1.859298896789550781e+01 -4.398812866210937500e+01 8.103237152099609375e+00
1.743977355957031250e+01 -4.581134796142578125e+01 1.184490489959716797e+01
1.538249397277832031e+01 -4.257784652709960938e+01 1.497358226776123047e+01
2.970931434631347656e+01 -3.562895965576171875e+01 -9.779744148254394531e+00
2.385361480712890625e+01 -3.629465484619140625e+01 -9.710694313049316406e+00
3.228797149658203125e+01 -3.393064117431640625e+01 -8.163226127624511719e+00
1.611229515075683594e+01 -3.648499679565429688e+01 1.413117694854736328e+01
1.964052200317382812e+01 -3.278084564208984375e+01 1.681264686584472656e+01
2.023788070678710938e+01 -2.260510063171386719e+01 -1.640557050704956055e+00
1.611136054992675781e+01 -2.762086105346679688e+01 -3.036827564239501953e+00
3.202249526977539062e+01 -4.285211944580078125e+01 9.888051986694335938e+00
2.362322425842285156e+01 -4.602156448364257812e+01 6.882969856262207031e+00
2.853576278686523438e+01 -4.567908477783203125e+01 7.380528926849365234e+00
2.608247375488281250e+01 -3.210126876831054688e+01 1.695794677734375000e+01
2.016521263122558594e+01 -3.692426300048828125e+01 2.078794860839843750e+01
1.709136772155761719e+01 -5.493610382080078125e+01 2.682666969299316406e+01
1.677030563354492188e+01 -4.376637268066406250e+01 2.140765380859375000e+01
1.525995445251464844e+01 -4.642201614379882812e+01 1.835956954956054688e+01
1.516902351379394531e+01 -5.740230178833007812e+01 2.423216056823730469e+01
1.654327392578125000e+01 -3.943869400024414062e+01 1.864622306823730469e+01
2.074418830871582031e+01 -4.159569549560546875e+01 2.324964904785156250e+01
2.454618263244628906e+01 -6.259908294677734375e+01 1.839058876037597656e+01
1.831791877746582031e+01 -6.181224822998046875e+01 1.893973922729492188e+01
2.843278121948242188e+01 -6.189525222778320312e+01 2.013398361206054688e+01
2.709393692016601562e+01 -2.088148307800292969e+01 -2.207529783248901367e+00
2.976560974121093750e+01 -5.587388992309570312e+01 2.583873939514160156e+01
3.018031692504882812e+01 -5.973546600341796875e+01 2.231570434570312500e+01
1.638071823120117188e+01 -4.894597244262695312e+01 1.501206207275390625e+01
1.533794403076171875e+01 -6.012078857421875000e+01 2.154215049743652344e+01
2.044748306274414062e+01 -5.346888351440429688e+01 2.822427940368652344e+01
2.619486045837402344e+01 -5.245424652099609375e+01 2.788912582397460938e+01
2.016898727416992188e+01 -5.897591400146484375e+01 3.009928512573242188e+01
2.537579154968261719e+01 -5.864210891723632812e+01 3.000087928771972656e+01
2.926840209960937500e+01 -6.161563873291015625e+01 2.748645019531250000e+01
2.978998184204101562e+01 -6.404840850830078125e+01 2.395698356628417969e+01
2.806190109252929688e+01 -6.513258361816406250e+01 2.133791923522949219e+01
1.687554550170898438e+01 -6.052273559570312500e+01 2.875049209594726562e+01
1.499055480957031250e+01 -6.248140335083007812e+01 2.607976341247558594e+01
1.548479747772216797e+01 -6.316009521484375000e+01 2.224377250671386719e+01
1.614042854309082031e+01 -6.768032073974609375e+01 2.955398941040039062e+01
1.918769454956054688e+01 -6.784663391113281250e+01 3.173864173889160156e+01
2.809969520568847656e+01 -8.173619842529296875e+01 2.835709762573242188e+01
2.914980125427246094e+01 -7.611855316162109375e+01 2.830457115173339844e+01
2.781449317932128906e+01 -7.626956939697265625e+01 3.006167602539062500e+01
2.726808738708496094e+01 -8.156294250488281250e+01 3.027335739135742188e+01
2.866975402832031250e+01 -7.028092193603515625e+01 2.947329139709472656e+01
2.733693885803222656e+01 -7.193022155761718750e+01 3.055747604370117188e+01
2.402353286743164062e+01 -6.999406433105468750e+01 3.208683013916015625e+01
2.391900444030761719e+01 -7.584621429443359375e+01 3.203931808471679688e+01
1.937548828125000000e+01 -7.468955230712890625e+01 3.188553237915039062e+01
1.931053733825683594e+01 -8.020085144042968750e+01 3.230295944213867188e+01
2.339503479003906250e+01 -8.147633361816406250e+01 3.277046966552734375e+01
2.073690986633300781e+01 -7.074207305908203125e+01 3.226642608642578125e+01
2.591456222534179688e+01 -8.431745910644531250e+01 3.048760604858398438e+01
2.556475067138671875e+01 -8.546639251708984375e+01 2.908613586425781250e+01
2.446214675903320312e+01 -6.706983184814453125e+01 3.187530899047851562e+01
2.983140182495117188e+01 -6.796143341064453125e+01 2.560191345214843750e+01
2.925090408325195312e+01 -7.653859710693359375e+01 2.604299545288085938e+01
2.739606666564941406e+01 -8.254885101318359375e+01 2.640852737426757812e+01
2.412978744506835938e+01 -8.582997894287109375e+01 2.745735168457031250e+01
2.734594154357910156e+01 -7.746053314208984375e+01 2.365390205383300781e+01
2.582407188415527344e+01 -8.297254943847656250e+01 2.486273384094238281e+01
2.297556686401367188e+01 -8.538510131835937500e+01 2.617361068725585938e+01
2.366447067260742188e+01 -7.774039459228515625e+01 2.205163192749023438e+01
2.264153671264648438e+01 -8.291208648681640625e+01 2.369747924804687500e+01
2.392075729370117188e+01 -6.709872436523437500e+01 2.016122436523437500e+01
2.797342300415039062e+01 -6.787171173095703125e+01 2.208185768127441406e+01
2.197195243835449219e+01 -8.456927490234375000e+01 2.509101676940917969e+01
2.246997451782226562e+01 -8.615029144287109375e+01 2.973969078063964844e+01
2.108935546875000000e+01 -8.532188415527343750e+01 2.733620643615722656e+01
2.312110519409179688e+01 -8.484956359863281250e+01 3.171696090698242188e+01
1.756328392028808594e+01 -7.447395324707031250e+01 3.100754356384277344e+01
1.763434410095214844e+01 -8.067469787597656250e+01 3.093745803833007812e+01
1.597101783752441406e+01 -7.465690612792968750e+01 2.935080909729003906e+01
1.662599563598632812e+01 -8.157414245605468750e+01 2.924159240722656250e+01
1.877799987792968750e+01 -8.478621673583984375e+01 3.015005111694335938e+01
1.956666946411132812e+01 -8.449018859863281250e+01 3.137594032287597656e+01
2.408937072753906250e+01 -6.469688415527343750e+01 1.942133331298828125e+01
1.841337394714355469e+01 -6.398774337768554688e+01 1.986968231201171875e+01
1.863001251220703125e+01 -6.623480224609375000e+01 2.052334976196289062e+01
1.902788925170898438e+01 -7.679180908203125000e+01 2.229028511047363281e+01
1.551364326477050781e+01 -6.575254821777343750e+01 2.301085662841796875e+01
1.487175941467285156e+01 -6.750288391113281250e+01 2.678219985961914062e+01
1.525592041015625000e+01 -7.458730316162109375e+01 2.729936599731445312e+01
1.608656692504882812e+01 -7.578137969970703125e+01 2.452228355407714844e+01
1.615173530578613281e+01 -8.147129821777343750e+01 2.777550125122070312e+01
1.631736373901367188e+01 -8.069139862060546875e+01 2.555262374877929688e+01
1.910657882690429688e+01 -8.180000305175781250e+01 2.371933555603027344e+01
1.825150871276855469e+01 -8.443158721923828125e+01 2.772909164428710938e+01
1.870010757446289062e+01 -8.474620056152343750e+01 2.893765830993652344e+01
2.041812515258789062e+01 -8.518670654296875000e+01 2.616479873657226562e+01
1.749866485595703125e+01 -8.365216064453125000e+01 2.632239341735839844e+01
1.979739379882812500e+01 -8.450542449951171875e+01 2.547123718261718750e+01
5.551201105117797852e-01 -5.373880004882812500e+01 -5.482599735260009766e+00
-4.482747554779052734e+00 -5.312334060668945312e+01 -8.944383621215820312e+00
-4.056490421295166016e+00 -5.039939498901367188e+01 -8.915550231933593750e+00
1.255183219909667969e+00 -5.010410308837890625e+01 -5.256150245666503906e+00
-2.730805397033691406e+00 -5.254062652587890625e+01 5.110817909240722656e+00
5.226836204528808594e-01 -5.366812896728515625e+01 2.859232425689697266e+00
1.299567937850952148e+00 -4.945287704467773438e+01 3.690190553665161133e+00
-1.700528860092163086e+00 -4.650661087036132812e+01 6.051213264465332031e+00
-7.369358062744140625e+00 -5.367079925537109375e+01 4.598597526550292969e+00
-6.592903137207031250e+00 -4.482521438598632812e+01 6.041630268096923828e+00
-5.053594708442687988e-01 -4.072631072998046875e+01 4.497006416320800781e+00
2.333989381790161133e+00 -4.515140914916992188e+01 3.422406673431396484e+00
7.877216339111328125e+00 -3.263525009155273438e+01 -7.066428184509277344e+00
3.587284803390502930e+00 -2.876605224609375000e+01 -5.052778244018554688e+00
1.799807786941528320e+00 -5.386331176757812500e+01 -9.520214796066284180e-01
2.426630496978759766e+00 -5.037895965576171875e+01 -2.134479582309722900e-01
-1.100748825073242188e+01 -4.544654083251953125e+01 -7.743827819824218750e+00
-7.805494785308837891e+00 -4.702502059936523438e+01 -9.801111221313476562e+00
-9.212592124938964844e+00 -4.923902130126953125e+01 -8.365501403808593750e+00
-1.209602832794189453e+01 -4.821277618408203125e+01 -5.829788208007812500e+00
6.583779335021972656e+00 -3.696964645385742188e+01 -1.472812843322753906e+01
6.499533653259277344e-01 -3.770099639892578125e+01 -1.785611915588378906e+01
7.961948394775390625e+00 -3.557014846801757812e+01 -1.089382457733154297e+01
-1.282043743133544922e+01 -4.334232330322265625e+01 -3.232422351837158203e+00
-1.107539081573486328e+01 -3.970693969726562500e+01 8.262402415275573730e-01
-8.164538383483886719e+00 -2.891216087341308594e+01 -1.025035667419433594e+01
-8.758047103881835938e+00 -3.215797042846679688e+01 -1.389770317077636719e+01
3.151739835739135742e+00 -4.727695465087890625e+01 -2.271093130111694336e-01
-2.974391460418701172e+00 -4.813135528564453125e+01 -9.659303665161132812e+00
1.934511780738830566e+00 -4.803133392333984375e+01 -5.689454555511474609e+00
-5.552455902099609375e+00 -3.864389038085937500e+01 3.966058731079101562e+00
-1.156064891815185547e+01 -4.553352737426757812e+01 3.066381931304931641e+00
-1.237567329406738281e+01 -6.765163421630859375e+01 -6.554201602935791016e+00
-1.340292549133300781e+01 -5.146524047851562500e+01 -1.618445634841918945e+00
-1.221178531646728516e+01 -5.213721466064453125e+01 -5.868543624877929688e+00
-1.170680809020996094e+01 -6.718482208251953125e+01 -9.505036354064941406e+00
-1.341937541961669922e+01 -4.740087509155273438e+01 -1.476266860961914062e+00
-1.172027683258056641e+01 -5.204352951049804688e+01 2.366867065429687500e+00
-9.749718904495239258e-01 -6.686428070068359375e+01 -9.766163825988769531e+00
-4.916016101837158203e+00 -6.567658233642578125e+01 -1.175096702575683594e+01
8.581042289733886719e-01 -6.660298919677734375e+01 -6.414151191711425781e+00
-2.620202302932739258e+00 -2.664191246032714844e+01 -6.464865684509277344e+00
-5.859303474426269531e+00 -3.520677566528320312e+01 -1.750976562500000000e+01
-1.919579148292541504e+00 -6.808369445800781250e+01 -1.311486244201660156e+00
4.584036767482757568e-01 -6.731461334228515625e+01 -3.738430023193359375e+00
-9.508248329162597656e+00 -5.231775665283203125e+01 -8.104757308959960938e+00
-9.268801689147949219e+00 -6.632441711425781250e+01 -1.140954017639160156e+01
-1.099408531188964844e+01 -6.737311553955078125e+01 -3.073963880538940430e+00
-6.754060268402099609e+00 -6.733436584472656250e+01 -3.673896193504333496e-01
-1.099340057373046875e+01 -7.210430908203125000e+01 -5.604290485382080078e+00
-6.795183658599853516e+00 -7.210548400878906250e+01 -2.757634639739990234e+00
-1.942466735839843750e+00 -7.283616638183593750e+01 -3.380516529083251953e+00
6.016900539398193359e-01 -7.186386871337890625e+01 -5.590817928314208984e+00
1.024046540260314941e+00 -7.078247070312500000e+01 -8.146271705627441406e+00
-1.205702209472656250e+01 -7.235379791259765625e+01 -8.972820281982421875e+00
-1.115474700927734375e+01 -7.172967529296875000e+01 -1.159708213806152344e+01
-8.712181091308593750e+00 -6.858933258056640625e+01 -1.241677570343017578e+01
-1.139161491394042969e+01 -7.611865234375000000e+01 -1.141879463195800781e+01
-1.006868839263916016e+01 -7.834980773925781250e+01 -8.869650840759277344e+00
4.329013824462890625e-01 -8.803804016113281250e+01 -1.284218120574951172e+01
-1.333388239145278931e-01 -8.368028259277343750e+01 -1.036486434936523438e+01
-1.065781831741333008e+00 -8.413974761962890625e+01 -1.005677509307861328e+01
-7.445564270019531250e-01 -8.866572570800781250e+01 -1.235168457031250000e+01
-2.092502593994140625e+00 -7.892440795898437500e+01 -6.739472866058349609e+00
-2.711232900619506836e+00 -8.064180755615234375e+01 -7.559525489807128906e+00
-5.922577857971191406e+00 -8.014028167724609375e+01 -7.400243282318115234e+00
-5.223935127258300781e+00 -8.543843078613281250e+01 -1.030367851257324219e+01
-9.351686477661132812e+00 -8.373612213134765625e+01 -1.253702068328857422e+01
-7.963127136230468750e+00 -8.769093322753906250e+01 -1.448671913146972656e+01
-4.292030334472656250e+00 -8.964710998535156250e+01 -1.249515056610107422e+01
-9.086202621459960938e+00 -8.014381408691406250e+01 -9.287061691284179688e+00
-1.291805148124694824e+00 -9.063595581054687500e+01 -1.358699798583984375e+01
-6.142377853393554688e-01 -9.084285736083984375e+01 -1.409287548065185547e+01
-6.347448825836181641e+00 -7.808741760253906250e+01 -6.148804664611816406e+00
6.713274717330932617e-01 -7.648748016357421875e+01 -7.486767768859863281e+00
1.601290702819824219e+00 -8.260881042480468750e+01 -1.155148601531982422e+01
1.780680894851684570e+00 -8.696290588378906250e+01 -1.414973926544189453e+01
4.089836180210113525e-01 -9.013490295410156250e+01 -1.551378345489501953e+01
1.843768835067749023e+00 -8.131520843505859375e+01 -1.363444232940673828e+01
1.782174825668334961e+00 -8.555116271972656250e+01 -1.571506309509277344e+01
5.313549041748046875e-01 -8.776543426513671875e+01 -1.694713783264160156e+01
5.725504755973815918e-01 -8.029316711425781250e+01 -1.548211097717285156e+01
4.658738672733306885e-01 -8.420711517333984375e+01 -1.712192153930664062e+01
-9.588573575019836426e-01 -7.174861145019531250e+01 -1.142310523986816406e+01
1.364481329917907715e+00 -7.399383544921875000e+01 -9.365264892578125000e+00
-1.353589147329330444e-01 -8.621763610839843750e+01 -1.775977706909179688e+01
-3.064278125762939453e+00 -9.170378875732421875e+01 -1.512345409393310547e+01
-1.303748369216918945e+00 -8.754784393310546875e+01 -1.814125061035156250e+01
-3.398883342742919922e+00 -9.116796875000000000e+01 -1.424258232116699219e+01
-1.013456058502197266e+01 -8.251527404785156250e+01 -1.333209800720214844e+01
-8.231249809265136719e+00 -8.738637542724609375e+01 -1.647179412841796875e+01
-9.932548522949218750e+00 -8.113548278808593750e+01 -1.492228412628173828e+01
-7.964861869812011719e+00 -8.618214416503906250e+01 -1.801642417907714844e+01
-6.148474216461181641e+00 -9.007369232177734375e+01 -1.702960968017578125e+01
-6.227231502532958984e+00 -9.013749694824218750e+01 -1.622183036804199219e+01
-1.203938126564025879e+00 -6.905320739746093750e+01 -1.069910430908203125e+01
-5.038762092590332031e+00 -6.783305358886718750e+01 -1.253248023986816406e+01
-4.330654144287109375e+00 -7.036305236816406250e+01 -1.342090129852294922e+01
-2.481768846511840820e+00 -7.994384765625000000e+01 -1.744177246093750000e+01
-7.899362087249755859e+00 -7.108845520019531250e+01 -1.358571624755859375e+01
-1.019269371032714844e+01 -7.535841369628906250e+01 -1.374374866485595703e+01
-8.518091201782226562e+00 -8.028115844726562500e+01 -1.666755294799804688e+01
-5.924784660339355469e+00 -8.012038421630859375e+01 -1.784482002258300781e+01
-6.868878841400146484e+00 -8.498983001708984375e+01 -1.878593826293945312e+01
-5.414435386657714844e+00 -8.368238830566406250e+01 -1.911437416076660156e+01
-2.034576416015625000e+00 -8.362043762207031250e+01 -1.869501876831054688e+01
-5.045699596405029297e+00 -8.700511169433593750e+01 -1.927299880981445312e+01
-5.625902175903320312e+00 -8.857426452636718750e+01 -1.840386772155761719e+01
-1.691175699234008789e+00 -8.645501708984375000e+01 -1.871047782897949219e+01
-4.187015533447265625e+00 -8.574491119384765625e+01 -1.928191566467285156e+01
-1.933654785156250000e+00 -8.588734436035156250e+01 -1.888249588012695312e+01
-3.216444730758666992e+00 -3.619001388549804688e+01 -1.849734306335449219e+01
-2.014914131164550781e+01 -5.248433685302734375e+01 -1.343329143524169922e+01
-2.271015930175781250e+01 -5.319815063476562500e+01 -1.685432815551757812e+01
-2.314571571350097656e+01 -5.094557952880859375e+01 -1.795461654663085938e+01
-1.988421249389648438e+01 -4.942610931396484375e+01 -1.521992492675781250e+01
-2.358975791931152344e+01 -4.703375244140625000e+01 -5.780705451965332031e+00
-2.085993385314941406e+01 -4.960836029052734375e+01 -7.298646450042724609e+00
-1.937489509582519531e+01 -4.516621780395507812e+01 -8.539771080017089844e+00
-2.198148155212402344e+01 -4.224979400634765625e+01 -7.077477455139160156e+00
-2.814507675170898438e+01 -4.659832763671875000e+01 -6.458411216735839844e+00
-2.721506690979003906e+01 -4.166468429565429688e+01 -7.451757907867431641e+00
-2.115677452087402344e+01 -3.921173858642578125e+01 -8.542066574096679688e+00
-1.812241935729980469e+01 -4.209311676025390625e+01 -1.023018550872802734e+01
-1.381308174133300781e+01 -2.987386512756347656e+01 -2.013637733459472656e+01
-1.650790023803710938e+01 -2.637685203552246094e+01 -2.124001502990722656e+01
-2.741175460815429688e+01 -3.391249847412109375e+01 -3.334716033935546875e+01
-2.365439414978027344e+01 -3.772695159912109375e+01 -3.391426467895507812e+01
-2.523068428039550781e+01 -4.023588180541992188e+01 -2.836985397338867188e+01
-2.824735069274902344e+01 -3.753870010375976562e+01 -2.810966110229492188e+01
-1.965678596496582031e+01 -5.133463287353515625e+01 -9.984436035156250000e+00
-1.854732894897460938e+01 -4.777248764038085938e+01 -1.170003128051757812e+01
-3.143878173828125000e+01 -4.591461944580078125e+01 -1.914974975585937500e+01
-2.803917884826660156e+01 -4.768363952636718750e+01 -2.025767707824707031e+01
-2.704527854919433594e+01 -5.063619232177734375e+01 -1.941069412231445312e+01
-3.093925857543945312e+01 -4.978413772583007812e+01 -1.872802162170410156e+01
-1.913644027709960938e+01 -3.979126739501953125e+01 -3.174767494201660156e+01
-1.497523021697998047e+01 -3.948557281494140625e+01 -2.955598068237304688e+01
-1.610846519470214844e+01 -3.915773391723632812e+01 -2.630944252014160156e+01
-2.128377914428710938e+01 -4.116361236572265625e+01 -2.712568092346191406e+01
-1.341167259216308594e+01 -3.577534484863281250e+01 -2.356235885620117188e+01
-3.288952255249023438e+01 -4.375319290161132812e+01 -1.663384819030761719e+01
-3.141621017456054688e+01 -4.017320632934570312e+01 -1.246609020233154297e+01
-2.820630836486816406e+01 -2.888435363769531250e+01 -2.616278457641601562e+01
-2.938132667541503906e+01 -3.287095260620117188e+01 -2.798409461975097656e+01
-1.780970764160156250e+01 -4.502095031738281250e+01 -1.284263610839843750e+01
-2.397208595275878906e+01 -4.831886672973632812e+01 -1.923223876953125000e+01
-2.016305160522460938e+01 -4.717052078247070312e+01 -1.669842147827148438e+01
-2.668165969848632812e+01 -3.834577560424804688e+01 -9.057670593261718750e+00
-3.214216995239257812e+01 -4.413054275512695312e+01 -1.092855167388916016e+01
-3.290442657470703125e+01 -5.937033081054687500e+01 -1.512605571746826172e+01
-3.316603469848632812e+01 -5.095680999755859375e+01 -1.553413867950439453e+01
-3.043125534057617188e+01 -5.291986083984375000e+01 -1.845738792419433594e+01
-3.120816040039062500e+01 -6.012321853637695312e+01 -1.694580459594726562e+01
-3.320589065551757812e+01 -4.736736297607421875e+01 -1.574184608459472656e+01
-3.261325454711914062e+01 -4.870495986938476562e+01 -1.028840637207031250e+01
-2.082715225219726562e+01 -6.097338104248046875e+01 -1.232883358001708984e+01
-2.420130538940429688e+01 -6.065201950073242188e+01 -1.662747573852539062e+01
-2.060726737976074219e+01 -6.038550949096679688e+01 -9.177580833435058594e+00
-2.238795471191406250e+01 -2.526303482055664062e+01 -2.291742897033691406e+01
-2.558150863647460938e+01 -5.827420043945312500e+01 -4.972531318664550781e+00
-2.218187904357910156e+01 -5.994481277465820312e+01 -6.427586555480957031e+00
-2.643210983276367188e+01 -5.353614425659179688e+01 -1.869551086425781250e+01
-2.820740127563476562e+01 -6.048473358154296875e+01 -1.774399185180664062e+01
-3.334595108032226562e+01 -5.841105270385742188e+01 -1.136818695068359375e+01
-3.028629112243652344e+01 -5.730299758911132812e+01 -6.591575622558593750e+00
-3.321362304687500000e+01 -6.304448318481445312e+01 -1.156652164459228516e+01
-3.022825622558593750e+01 -6.190900421142578125e+01 -6.883062839508056641e+00
-2.527819061279296875e+01 -6.337271118164062500e+01 -5.622462749481201172e+00
-2.206648254394531250e+01 -6.345259475708007812e+01 -7.018832206726074219e+00
-2.056533432006835938e+01 -6.363618087768554688e+01 -9.579537391662597656e+00
-3.265670394897460938e+01 -6.338866043090820312e+01 -1.545956420898437500e+01
-3.092625999450683594e+01 -6.355303955078125000e+01 -1.732784652709960938e+01
-2.806744384765625000e+01 -6.310402297973632812e+01 -1.795375823974609375e+01
-3.251842498779296875e+01 -6.766230010986328125e+01 -1.586944103240966797e+01
-3.268305587768554688e+01 -6.901097106933593750e+01 -1.209330749511718750e+01
-2.380925941467285156e+01 -7.834944915771484375e+01 -1.052958965301513672e+01
-2.370128059387207031e+01 -7.450506591796875000e+01 -9.371934890747070312e+00
-2.481750106811523438e+01 -7.457595062255859375e+01 -9.094678878784179688e+00
-2.461342239379882812e+01 -7.849162292480468750e+01 -1.015639686584472656e+01
-2.504588699340820312e+01 -6.949892425537109375e+01 -7.450360298156738281e+00
-2.616412925720214844e+01 -7.074790191650390625e+01 -7.871863365173339844e+00
-2.941796302795410156e+01 -6.939350128173828125e+01 -8.370952606201171875e+00
-2.887011337280273438e+01 -7.475494384765625000e+01 -9.774835586547851562e+00
-3.186458969116210938e+01 -7.481193542480468750e+01 -1.363845252990722656e+01
-3.087151527404785156e+01 -7.853223419189453125e+01 -1.389764213562011719e+01
-2.844881057739257812e+01 -7.843344879150390625e+01 -1.038765525817871094e+01
-3.194497680664062500e+01 -7.070730590820312500e+01 -1.132158470153808594e+01
-2.553582572937011719e+01 -8.080531311035156250e+01 -1.064722347259521484e+01
-2.512365341186523438e+01 -8.132722473144531250e+01 -1.120619487762451172e+01
-2.946352005004882812e+01 -6.747090911865234375e+01 -7.740401268005371094e+00
-2.177367591857910156e+01 -6.828884887695312500e+01 -8.515859603881835938e+00
-2.188229370117187500e+01 -7.490106201171875000e+01 -1.088030433654785156e+01
-2.295425415039062500e+01 -7.941580200195312500e+01 -1.197977638244628906e+01
-2.438510704040527344e+01 -8.116274261474609375e+01 -1.300900840759277344e+01
-2.092831993103027344e+01 -7.370133209228515625e+01 -1.266944599151611328e+01
-2.232682418823242188e+01 -7.884782409667968750e+01 -1.364169311523437500e+01
-2.367603492736816406e+01 -8.033757781982421875e+01 -1.485081195831298828e+01
-2.142953872680664062e+01 -7.250028991699218750e+01 -1.535290050506591797e+01
-2.250402450561523438e+01 -7.784591674804687500e+01 -1.559371471405029297e+01
-2.125547409057617188e+01 -6.596770477294921875e+01 -1.441630840301513672e+01
-2.053385734558105469e+01 -6.726994323730468750e+01 -1.101977729797363281e+01
-2.366859054565429688e+01 -7.980999755859375000e+01 -1.560016155242919922e+01
-2.765761184692382812e+01 -8.216274261474609375e+01 -1.210884666442871094e+01
-2.619851112365722656e+01 -8.163003540039062500e+01 -1.410048103332519531e+01
-2.813354110717773438e+01 -8.127198028564453125e+01 -1.156500911712646484e+01
-3.202857208251953125e+01 -7.427767181396484375e+01 -1.479580497741699219e+01
-3.069845199584960938e+01 -7.869740295410156250e+01 -1.522350025177001953e+01
-3.136436080932617188e+01 -7.361085510253906250e+01 -1.679855728149414062e+01
-2.986632728576660156e+01 -7.851049041748046875e+01 -1.650493240356445312e+01
-2.940259742736816406e+01 -8.064035034179687500e+01 -1.414365386962890625e+01
-2.972592163085937500e+01 -8.033490753173828125e+01 -1.307306861877441406e+01
-2.103342056274414062e+01 -6.381582641601562500e+01 -1.351202392578125000e+01
-2.394114303588867188e+01 -6.295897293090820312e+01 -1.671731948852539062e+01
-2.426288223266601562e+01 -6.527869415283203125e+01 -1.736641311645507812e+01
-2.378849601745605469e+01 -7.181470489501953125e+01 -1.792767524719238281e+01
-2.816536521911621094e+01 -6.551973724365234375e+01 -1.837614440917968750e+01
